# .PCD v0.7 - Point Cloud Data file format
VERSION 0.7
FIELDS x y z normal_x normal_y normal_z curvature
SIZE 4 4 4 4 4 4 4
TYPE F F F F F F F
COUNT 1 1 1 1 1 1 1
WIDTH 1005
HEIGHT 1
VIEWPOINT 0 0 0 1 0 0 0
POINTS 1005
DATA ascii
-0.035478 0.090174362 0.0022330314 -1 0 0 0
0.035478 0.090791918 0.0027409059 1 0 0 0
-0.035478 0.09150888 0.0023690308 -1 0 0 0
-0.035478 0.092187002 0.002230807 -1 0 0 0
-0.035478 0.093596652 0.00230054 -1 0 0 0
0.035478 0.093197785 0.0026993509 1 0 0 0
-0.035478 0.09493877 0.0021959003 -1 0 0 0
0.035478 0.094639309 0.0024158917 1 0 0 0
-0.035478 0.09523835 0.0025831994 -1 0 0 0
0.035478 0.095509 0.00241301 1 0 0 0
-0.035478 0.096211851 0.0020235085 -1 0 0 0
0.035478 0.096535802 0.0024711324 1 0 0 0
-0.035478 0.097398281 0.0024779306 -1 0 0 0
-0.035478 0.098547734 0.0021566369 -1 0 0 0
0.035478 0.098920375 0.0025486613 1 0 0 0
-0.035478 0.099461712 0.0025108235 -1 0 0 0
-0.035478 0.10019103 0.0025090347 -1 0 0 0
-0.035478 0.10171477 0.0026820721 -1 0 0 0
0.035478 0.10153473 0.0021627445 1 0 0 0
-0.035478 0.10295705 0.0025987017 -1 0 0 0
0.035478 0.10260803 0.0024038348 1 0 0 0
-0.035478 0.10346888 0.0024654893 -1 0 0 0
0.035478 0.104413 0.0022588242 1 0 0 0
-0.035478 0.10531594 0.0024475004 -1 0 0 0
0.035478 0.10557991 0.0024947566 1 0 0 0
-0.035478 0.10681565 0.0026149431 -1 0 0 0
0.035478 0.10634872 0.0023183685 1 0 0 0
-0.035478 0.10747989 0.0024866045 -1 0 0 0
-0.035478 0.10854308 0.0027635586 -1 0 0 0
-0.035478 0.1094879 0.0026954301 -1 0 0 0
-0.035478 0.11066876 0.0022508197 -1 0 0 0
-0.035478 0.1112362 0.0023502519 -1 0 0 0
0.035478 0.11189499 0.0024634562 1 0 0 0
-0.035478 0.11263088 0.0022611807 -1 0 0 0
-0.035478 0.11353 0.0026522949 -1 0 0 0
0.035478 0.11373515 0.0024530091 1 0 0 0
0.035478 0.1140158 0.0026161142 1 0 0 0
-0.035478 0.11594836 0.0027227576 -1 0 0 0
0.035478 0.11582875 0.002124249 1 0 0 0
-0.035478 0.11667444 0.0024528357 -1 0 0 0
0.035478 0.11652135 0.0026290824 1 0 0 0
-0.035478 0.11762864 0.0024827467 -1 0 0 0
0.035478 0.11766551 0.0029741279 1 0 0 0
-0.035478 0.11845997 0.0023560917 -1 0 0 0
0.035478 0.11827919 0.0025051855 1 0 0 0
-0.035478 0.1195543 0.0026048124 -1 0 0 0
0.035478 0.11924049 0.0022310133 1 0 0 0
-0.035478 0.12039386 0.0029172681 -1 0 0 0
0.035478 0.12046086 0.0026605197 1 0 0 0
-0.035478 0.12190143 0.0024126191 -1 0 0 0
0.035478 0.12132663 0.0020264625 1 0 0 0
-0.035478 0.12353787 0.002870165 -1 0 0 0
0.035478 0.12336531 0.0023740816 1 0 0 0
-0.035478 0.12474035 0.0028929913 -1 0 0 0
0.035478 0.12455569 0.0021286123 1 0 0 0
-0.035478 0.12528081 0.0027160039 -1 0 0 0
-0.035478 0.12603168 0.002385783 -1 0 0 0
0.035478 0.12619755 0.0023697866 1 0 0 0
0.035478 0.12779061 0.0023747722 1 0 0 0
-0.035478 0.12847699 0.0024157395 -1 0 0 0
0.035478 0.1282239 0.0027983093 1 0 0 0
0.035478 0.13036534 0.0025180927 1 0 0 0
-0.035478 0.13141595 0.0024152005 -1 0 0 0
0.035478 0.13173199 0.0021751109 1 0 0 0
-0.035478 0.13251024 0.0023425804 -1 0 0 0
0.035478 0.13259 0.0026188807 1 0 0 0
-0.035478 0.1333247 0.0021197072 -1 0 0 0
0.035478 0.13326861 0.0029299641 1 0 0 0
-0.035478 0.13422289 0.0028013368 -1 0 0 0
0.035478 0.13481873 0.0027257991 1 0 0 0
-0.035478 0.13535926 0.0023564291 -1 0 0 0
-0.035478 0.13643214 0.0025540052 -1 0 0 0
0.035478 0.13653554 0.0026595986 1 0 0 0
-0.035478 0.13770562 0.0025169896 -1 0 0 0
0.035478 0.13746978 0.0029033537 1 0 0 0
-0.035478 0.13860185 0.0023066348 -1 0 0 0
0.035478 0.13833742 0.0022605716 1 0 0 0
0.035478 0.13990906 0.0020831013 1 0 0 0
-0.035478 0.14057085 0.0025909846 -1 0 0 0
-0.035478 0.14117603 0.0024781143 -1 0 0 0
0.035478 0.14152643 0.0020392907 1 0 0 0
-0.035478 0.14259557 0.0025001036 -1 0 0 0
-0.035478 0.1431123 0.0023201692 -1 0 0 0
0.035478 0.14358209 0.0025059145 1 0 0 0
-0.035478 0.14451911 0.0029412995 -1 0 0 0
0.035478 0.1444018 0.0025844304 1 0 0 0
-0.035478 0.14561595 0.0024722666 -1 0 0 0
0.035478 0.14502014 0.0021120715 1 0 0 0
-0.035478 0.14650255 0.0023152134 -1 0 0 0
-0.035478 0.14785212 0.0023067142 -1 0 0 0
0.035478 0.14739385 0.0025445751 1 0 0 0
0.035478 0.14815335 0.0021375488 1 0 0 0
-0.035478 0.14998642 0.002419167 -1 0 0 0
0.035478 0.15040284 0.0026636054 1 0 0 0
-0.035478 0.15186916 0.0021760925 -1 0 0 0
0.035478 0.15249595 0.0026385288 1 0 0 0
-0.035478 0.15392496 0.0023134362 -1 0 0 0
-0.035478 0.15435836 0.0024995212 -1 0 0 0
0.035478 0.15412472 0.0021165237 1 0 0 0
-0.035478 0.1550927 0.0026913683 -1 0 0 0
0.035478 0.15514761 0.0020056712 1 0 0 0
-0.035478 0.15678889 0.0028713895 -1 0 0 0
-0.035478 0.1575513 0.0022816404 -1 0 0 0
0.035478 0.15730095 0.0025198536 1 0 0 0
-0.035478 0.15842575 0.0024702612 -1 0 0 0
0.035478 0.15820418 0.0026249674 1 0 0 0
-0.035478 0.15983014 0.0022143007 -1 0 0 0
0.035478 0.15913729 0.0025359981 1 0 0 0
-0.035478 0.16198322 0.0024505884 -1 0 0 0
0.035478 0.16142176 0.0024870303 1 0 0 0
-0.035478 0.1620146 0.0020371154 -1 0 0 0
0.035478 0.1624416 0.0025145025 1 0 0 0
-0.035478 0.16339654 0.0021709425 -1 0 0 0
0.035478 0.16394007 0.002399687 1 0 0 0
0.035478 0.16415864 0.0026195594 1 0 0 0
0.035478 0.16552252 0.0021326758 1 0 0 0
-0.035478 0.16613337 0.002322918 -1 0 0 0
0.035478 0.16679151 0.0024264865 1 0 0 0
-0.035478 0.16757086 0.0027075899 -1 0 0 0
0.035478 0.16769196 0.0026707975 1 0 0 0
-0.035478 0.16864449 0.0025627324 -1 0 0 0
0.035478 0.16857642 0.0022464585 1 0 0 0
-0.035478 0.17041963 0.0024746982 -1 0 0 0
0.035478 0.17152812 0.002388926 1 0 0 0
-0.035478 0.17250009 0.0025961767 -1 0 0 0
0.035478 0.17262392 0.0025084217 1 0 0 0
-0.035478 0.17385617 0.0028197584 -1 0 0 0
0.035478 0.17359059 0.0026102748 1 0 0 0
-0.035478 0.17454973 0.0027053119 -1 0 0 0
0.035478 0.17458947 0.0023901884 1 0 0 0
-0.035478 0.17542011 0.0029707523 -1 0 0 0
0.035478 0.17514835 0.0020355226 1 0 0 0
-0.035478 0.17685317 0.0026446891 -1 0 0 0
0.035478 0.17689215 0.0028822157 1 0 0 0
-0.035478 0.17788175 0.0026239899 -1 0 0 0
0.035478 0.17789526 0.0027551018 1 0 0 0
-0.035478 0.17819595 0.0023186153 -1 0 0 0
0.035478 0.17850293 0.0025914023 1 0 0 0
-0.035478 0.17934601 0.0020510084 -1 0 0 0
0.035478 0.17981772 0.0020597563 1 0 0 0
-0.035478 0.1809334 0.0025693777 -1 0 0 0
0.035478 0.18075943 0.0024249414 1 0 0 0
-0.035478 0.1817276 0.0028399208 -1 0 0 0
0.035478 0.18151379 0.002298082 1 0 0 0
-0.035478 0.18255216 0.0023439936 -1 0 0 0
0.035478 0.18275389 0.0027355701 1 0 0 0
-0.035478 0.18331183 0.0025527817 -1 0 0 0
-0.035478 0.18437822 0.0022255448 -1 0 0 0
0.035478 0.18426485 0.0028335233 1 0 0 0
-0.035478 0.18571556 0.0023757052 -1 0 0 0
0.035478 0.1865043 0.0022671719 1 0 0 0
0.035478 0.18719299 0.0025098696 1 0 0 0
0.035478 0.18860607 0.0024202967 1 0 0 0
0.035478 0.18907934 0.0028650681 1 0 0 0
-0.035478 0.19015135 0.002672154 -1 0 0 0
-0.034553144 0.19120272 0.0026003821 -0.4910692 0.87111193 0.0038796298 0
-0.033581711 0.19175005 0.0026677807 -0.4910692 0.87111193 0.0038796298 0
0.033599984 0.19173975 0.0026688222 0.4910692 0.87111193 0.0038796337 0
0.034536038 0.19121265 0.002539403 0.49106926 0.87111193 0.0038796333 0
-0.033112399 0.19201513 0.0025520187 -0.4910692 0.87111193 0.0038796298 0
-0.031620808 0.19285622 0.0025002449 -0.4910692 0.87111193 0.0038796298 0
0.031929612 0.19268237 0.0024467926 0.4910692 0.87111193 0.0038796337 0
0.032662824 0.19226743 0.0028051313 0.4910692 0.87111193 0.0038796337 0
-0.031326171 0.19302024 0.0029624766 -0.4910692 0.87111193 0.0038796298 0
-0.030405365 0.193542 0.0023628301 -0.4910692 0.87111193 0.0038796298 0
0.03055273 0.19345643 0.0029232667 0.4910692 0.87111193 0.0038796337 0
0.031287581 0.19304298 0.0027428546 0.4910692 0.87111193 0.0038796337 0
-0.028629899 0.19454373 0.0021693786 -0.4910692 0.87111193 0.0038796298 0
-0.027914239 0.19494581 0.0024738447 -0.4910692 0.87111193 0.0038796298 0
0.028600536 0.19455898 0.0024629892 0.4910692 0.87111193 0.0038796337 0
0.029089749 0.19428296 0.0025162061 0.4910692 0.87111193 0.0038796337 0
-0.026209086 0.19590774 0.0023222584 -0.4910692 0.87111193 0.0038796298 0
0.026181325 0.19592333 0.0023353179 0.4910692 0.87111193 0.0038796337 0
-0.024389684 0.19693404 0.0021729781 -0.4910692 0.87111193 0.0038796298 0
0.024503242 0.1968693 0.0023388921 0.4910692 0.87111193 0.0038796337 0
0.025997758 0.19602565 0.0025934249 0.4910692 0.87111193 0.0038796337 0
-0.024251107 0.19701281 0.0020289237 -0.4910692 0.87111193 0.0038796298 0
-0.023598375 0.19737771 0.0027161534 -0.4910692 0.87111193 0.0038796298 0
0.022695817 0.19788903 0.0021511666 0.4910692 0.87111193 0.0038796337 0
0.023731427 0.19730312 0.0026268468 0.4910692 0.87111193 0.0038796337 0
0.024120098 0.19708492 0.0024171029 0.4910692 0.87111193 0.0038796337 0
-0.021487627 0.19856885 0.0024374381 -0.4910692 0.87111193 0.0038796298 0
0.02087285 0.19891456 0.0026251678 0.4910692 0.87111193 0.0038796337 0
0.021664472 0.19846846 0.002587022 0.4910692 0.87111193 0.0038796337 0
0.022383679 0.19806145 0.002945076 0.4910692 0.87111193 0.0038796337 0
-0.019373825 0.19976057 0.0024114556 -0.4910692 0.87111193 0.0038796298 0
0.019460775 0.19971177 0.0023623381 0.4910692 0.87111193 0.0038796337 0
0.020533524 0.19910637 0.0025101872 0.4910692 0.87111193 0.0038796337 0
-0.01852946 0.20023584 0.002570482 -0.4910692 0.87111193 0.0038796298 0
-0.017332202 0.20090908 0.0029500704 -0.49106896 0.87111211 0.0038794479 0
0.018298984 0.20036781 0.0021139439 0.49106908 0.87111199 0.0038795425 0
-0.01675264 0.20123981 0.0020476726 -0.49106896 0.87111211 0.0038794479 0
-0.015697736 0.2018317 0.0026758926 -0.49106896 0.87111211 0.0038794479 0
0.016076902 0.20161837 0.0025824467 0.49106896 0.87111211 0.0038794512 0
-0.014623958 0.20243843 0.0023550177 -0.49106896 0.87111211 0.0038794482 0
0.013826335 0.20288792 0.0023923407 0.49106896 0.87111211 0.0038794512 0
0.014282543 0.20263135 0.0022516251 0.49106896 0.87111211 0.0038794512 0
-0.013496692 0.20307398 0.0023394458 -0.49106896 0.87111211 0.0038794482 0
-0.012340328 0.20372456 0.0026283143 -0.49106896 0.87111211 0.0038794479 0
-0.01198074 0.20392719 0.0026481042 -0.49106896 0.87111211 0.0038794479 0
0.012655918 0.20354769 0.0023952965 0.49106896 0.87111211 0.0038794512 0
0.013303094 0.20318349 0.0022517117 0.49106896 0.87111211 0.0038794512 0
-0.011225304 0.20435384 0.0024705469 -0.49106896 0.87111211 0.0038794479 0
-0.010369075 0.20483485 0.0028447809 -0.49106896 0.87111211 0.0038794479 0
0.010687949 0.20465508 0.0028465795 0.49106896 0.87111211 0.0038794512 0
0.011514052 0.20418903 0.0029265732 0.49106896 0.87111211 0.0038794512 0
-0.0091273785 0.20553449 0.0029192548 -0.49106896 0.87111211 0.0038794479 0
-0.0088054053 0.20571892 0.0022614624 -0.49106896 0.87111211 0.0038794479 0
0.0085920095 0.20583676 0.0028163041 0.49106896 0.87111211 0.0038794512 0
0.0095108049 0.20532128 0.0022588938 0.49106893 0.87111205 0.003879451 0
-0.0080840597 0.20612392 0.0026294235 -0.49106896 0.87111211 0.0038794479 0
-0.0077207051 0.2063299 0.0023750716 -0.49106896 0.87111211 0.0038794482 0
0.0068467977 0.20682056 0.0028177067 0.49106896 0.87111211 0.0038794512 0
0.0081273988 0.20609829 0.0028984863 0.49106896 0.87111211 0.0038794512 0
-0.006206112 0.20718436 0.0022294978 -0.49106896 0.87111211 0.0038794479 0
-0.0057957806 0.20741411 0.0025825261 -0.49106896 0.87111211 0.0038794482 0
0.0047630137 0.20799491 0.0028948514 0.49106896 0.87111211 0.0038794512 0
0.0052358354 0.20773007 0.0025105374 0.49106896 0.87111211 0.0038794512 0
0.0060818689 0.20725349 0.0024359198 0.49106896 0.87111211 0.0038794512 0
-0.0043169302 0.20824744 0.0026548684 -0.49106896 0.87111211 0.0038794479 0
-0.0033215908 0.20880964 0.0024108433 -0.49106896 0.87111211 0.0038794479 0
0.0033075763 0.20881706 0.0025148909 0.49106896 0.87111211 0.0038794512 0
-0.0025497659 0.20924485 0.0023846098 -0.49106896 0.87111211 0.0038794479 0
-0.0019971821 0.209557 0.0022386122 -0.49106896 0.87111211 0.0038794479 0
0.0023817762 0.20933899 0.0025103111 0.49106896 0.87111211 0.0038794512 0
0.00042200001 0.21059485 0.0020368677 1 0 0 0
-0.00042200001 0.21146263 0.0022622978 -1 0 0 0
0.00042200001 0.21145085 0.0022853853 1 0 0 0
-0.00042200001 0.21254912 0.0025806348 -1 0 0 0
0.00042200004 0.21239354 0.0023485124 1 0 0 0
-0.00042200001 0.21352641 0.0029811822 -1 0 0 0
0.00042200001 0.21336471 0.0026773205 1 0 0 0
0.00042200001 0.21440277 0.0024005484 1 0 0 0
-0.00042200001 0.21543071 0.0024668993 -1 0 0 0
0.00042200001 0.21556309 0.0023725885 1 0 0 0
0.00042200001 0.21653083 0.0025183598 1 0 0 0
-0.00042200001 0.2173918 0.0026826772 -1 0 0 0
0.00042200001 0.21767581 0.002347758 1 0 0 0
-0.00042200001 0.21861058 0.0023543874 -1 0 0 0
-0.00042200001 0.21964411 0.0025534322 -1 0 0 0
0.00042200001 0.21919291 0.002256799 1 0 0 0
0.00034358978 0.22027448 0.0028265412 0.70710677 0.7070998 0.0031491325 0
-0.034577601 6.2999999e-05 0.0038750388 0 -1 0 0
-0.033653896 6.2999999e-05 0.0036154327 0 -1 0 0
-0.032857966 6.2999999e-05 0.0035747886 0 -1 0 0
-0.03111813 6.2999999e-05 0.0039007524 0 -1 0 0
-0.030535653 6.2999999e-05 0.003501673 0 -1 0 0
-0.028181177 6.2999999e-05 0.0039837877 0 -1 0 0
-0.027860394 6.2999999e-05 0.0037090704 0 -1 0 0
-0.026370719 6.2999999e-05 0.0039312541 0 -1 0 0
-0.025348 6.2999999e-05 0.0032178825 0 -1 0 0
-0.023883231 6.2999999e-05 0.0034574782 0 -1 0 0
-0.022741159 6.2999999e-05 0.003186876 0 -1 0 0
-0.020591613 6.2999999e-05 0.0035343985 0 -1 0 0
-0.019210458 6.2999999e-05 0.0037984806 0 -1 0 0
-0.018381257 6.2999999e-05 0.0034630406 0 -1 0 0
-0.017203227 6.2999999e-05 0.0039982968 0 -1 0 0
-0.016746461 6.2999999e-05 0.0030391635 0 -1 0 0
-0.015187852 6.2999999e-05 0.0035758605 0 -1 0 0
-0.014390465 6.2999999e-05 0.0033092999 0 -1 0 0
-0.013751611 6.2999999e-05 0.0035479993 0 -1 0 0
-0.012630014 6.2999999e-05 0.0038270024 0 -1 0 0
-0.010719615 6.2999999e-05 0.0030068944 0 -1 0 0
-0.0088253738 6.2999999e-05 0.0037326487 0 -1 0 0
-0.0079650329 6.2999999e-05 0.0030406916 0 -1 0 0
-0.0051119863 6.2999999e-05 0.003832815 0 -1 0 0
-0.0033085337 6.2999999e-05 0.0032747476 0 -1 0 0
-0.00240528 6.2999999e-05 0.0034998278 0 -1 0 0
-0.00154917 6.2999999e-05 0.003398245 0 -1 0 0
0.0012000671 6.2999999e-05 0.0038420684 0 -1 0 0
0.0036512117 6.2999999e-05 0.0035234727 0 -1 0 0
0.004228936 6.2999999e-05 0.0037968133 0 -1 0 0
0.0057661762 6.2999999e-05 0.0032592493 0 -1 0 0
0.0066103339 6.2999999e-05 0.0037047789 0 -1 0 0
0.0073125223 6.2999999e-05 0.0035863181 0 -1 0 0
0.0084241182 6.2999999e-05 0.0033279464 0 -1 0 0
0.0098675285 6.2999999e-05 0.0034398427 0 -1 0 0
0.010364167 6.2999999e-05 0.0036487072 0 -1 0 0
0.012316917 6.2999999e-05 0.0036575482 0 -1 0 0
0.013605213 6.2999999e-05 0.0034072413 0 -1 0 0
0.014512593 6.2999999e-05 0.0031167704 0 -1 0 0
0.015546842 6.2999999e-05 0.0032151965 0 -1 0 0
0.016631693 6.2999999e-05 0.0032550162 0 -1 0 0
0.017455224 6.2999999e-05 0.0038457168 0 -1 0 0
0.018186638 6.2999999e-05 0.0032746037 0 -1 0 0
0.02154685 6.2999999e-05 0.0038697384 0 -1 0 0
0.02228182 6.2999999e-05 0.0033408762 0 -1 0 0
0.023292921 6.2999999e-05 0.0035487667 0 -1 0 0
0.024506286 6.2999999e-05 0.0033028335 0 -1 0 0
0.02542687 6.2999999e-05 0.0034201993 0 -1 0 0
0.026010208 6.2999999e-05 0.0039732582 0 -1 0 0
0.027598586 6.2999999e-05 0.0039620763 0 -1 0 0
0.028906286 6.2999999e-05 0.0030995589 0 -1 0 0
0.029488228 6.2999999e-05 0.0037363609 0 -1 0 0
0.030367658 6.2999999e-05 0.0033896493 0 -1 0 0
0.032872088 6.2999999e-05 0.0037224949 0 -1 0 0
0.033654086 6.2999999e-05 0.0033791796 0 -1 0 0
0.034385178 6.2999999e-05 0.0036317871 0 -1 0 0
0.035478 0.0003876015 0.003501371 1 0 0 0
-0.035478 0.0013502255 0.0033312154 -1 0 0 0
-0.035478 0.0026701195 0.0034792139 -1 0 0 0
0.035478 0.0024382637 0.0036651928 1 0 0 0
-0.035478 0.0034420434 0.0031740284 -1 0 0 0
0.035478 0.0038495776 0.0031402509 1 0 0 0
-0.035478 0.004292117 0.0034562175 -1 0 0 0
0.035478 0.0046532429 0.0030470784 1 0 0 0
0.035478 0.0052020801 0.0039878557 1 0 0 0
-0.035478 0.0061658565 0.0039250166 -1 0 0 0
0.035478 0.0066060205 0.0035900383 1 0 0 0
-0.035478 0.0075670676 0.003447074 -1 0 0 0
0.035478 0.0072849882 0.0033327166 1 0 0 0
0.035478 0.0084119681 0.0035925154 1 0 0 0
-0.035478 0.0095822979 0.0035950218 -1 0 0 0
0.035478 0.0094266562 0.0037432364 1 0 0 0
0.035478 0.010589578 0.0039717588 1 0 0 0
-0.035478 0.011585107 0.003491974 -1 0 0 0
0.035478 0.011643298 0.0031459678 1 0 0 0
-0.035478 0.012334706 0.0033803335 -1 0 0 0
0.035478 0.012638737 0.0035128577 1 0 0 0
-0.035478 0.013569193 0.0034931917 -1 0 0 0
0.035478 0.01357123 0.0033165263 1 0 0 0
-0.035478 0.014343841 0.0038390392 -1 0 0 0
0.035478 0.014050294 0.0038159934 1 0 0 0
-0.035478 0.015823785 0.0030344888 -1 0 0 0
0.035478 0.015670216 0.0036161849 1 0 0 0
0.035478 0.016925719 0.0034587507 1 0 0 0
0.035478 0.017312985 0.0036709094 1 0 0 0
0.035478 0.018428048 0.0037157701 1 0 0 0
-0.035478 0.019524967 0.0030400385 -1 0 0 0
0.035478 0.019767664 0.0035831069 1 0 0 0
-0.035478 0.020001248 0.0037542316 -1 0 0 0
0.035478 0.020579765 0.0037858791 1 0 0 0
-0.035478 0.02177383 0.0036886795 -1 0 0 0
-0.035478 0.022593152 0.0036388929 -1 0 0 0
-0.035478 0.023649588 0.0033195559 -1 0 0 0
0.035478 0.023703381 0.0034805574 1 0 0 0
-0.035478 0.024055049 0.0036392065 -1 0 0 0
-0.035478 0.025613144 0.0034828486 -1 0 0 0
0.035478 0.025499409 0.0035669648 1 0 0 0
0.035478 0.026271362 0.0034045451 1 0 0 0
-0.035478 0.027189914 0.0032556176 -1 0 0 0
0.035478 0.02741242 0.0037403752 1 0 0 0
-0.035478 0.028345542 0.0038685347 -1 0 0 0
0.035478 0.028146654 0.0039037506 1 0 0 0
-0.035478 0.029549643 0.0037039807 -1 0 0 0
0.035478 0.029737275 0.0032320544 1 0 0 0
-0.035478 0.030076837 0.0031751215 -1 0 0 0
0.035478 0.030723162 0.0033521939 1 0 0 0
-0.035478 0.031873092 0.0032148198 -1 0 0 0
0.035478 0.031476799 0.0035065806 1 0 0 0
-0.035478 0.032758608 0.003414144 -1 0 0 0
0.035478 0.032610115 0.0036823628 1 0 0 0
-0.035478 0.033268292 0.0035323491 -1 0 0 0
0.035478 0.033253416 0.0034544496 1 0 0 0
0.035478 0.034717608 0.0032713793 1 0 0 0
0.035478 0.035082102 0.0031279782 1 0 0 0
-0.035478 0.036981516 0.003509603 -1 0 0 0
-0.035478 0.037496861 0.0035691983 -1 0 0 0
0.035478 0.037475895 0.0034624911 1 0 0 0
-0.035478 0.038627274 0.0032133115 -1 0 0 0
0.035478 0.038949199 0.0033368676 1 0 0 0
-0.035478 0.039261155 0.0033513722 -1 0 0 0
0.035478 0.039157849 0.0033966519 1 0 0 0
-0.035478 0.04079894 0.0036556115 -1 0 0 0
0.035478 0.040048238 0.0039204918 1 0 0 0
-0.035478 0.04118561 0.0034936103 -1 0 0 0
-0.035478 0.042174183 0.0034604892 -1 0 0 0
0.035478 0.04242022 0.00356986 1 0 0 0
-0.035478 0.043547522 0.0038663882 -1 0 0 0
0.035478 0.043815941 0.0035051906 1 0 0 0
-0.035478 0.044841494 0.0034781706 -1 0 0 0
-0.035478 0.045391824 0.0031986821 -1 0 0 0
0.035478 0.045461763 0.0032164613 1 0 0 0
-0.035478 0.046472374 0.0031922786 -1 0 0 0
0.035478 0.046134811 0.0037906147 1 0 0 0
0.035478 0.047142331 0.0036422373 1 0 0 0
-0.035478 0.048855204 0.0032095385 -1 0 0 0
-0.035478 0.049432397 0.0035940348 -1 0 0 0
0.035478 0.049551859 0.003516885 1 0 0 0
-0.035478 0.050352816 0.0039899144 -1 0 0 0
0.035478 0.050612405 0.0035660004 1 0 0 0
-0.035478 0.051190045 0.0034129329 -1 0 0 0
0.035478 0.051696528 0.003641163 1 0 0 0
-0.035478 0.052136261 0.0034957528 -1 0 0 0
0.035478 0.052477296 0.003213102 1 0 0 0
-0.035478 0.05330357 0.003454617 -1 0 0 0
0.035478 0.053465426 0.0032887522 1 0 0 0
-0.035478 0.054463297 0.0036272935 -1 0 0 0
0.035478 0.054617587 0.0036228502 1 0 0 0
0.035478 0.055270325 0.0033160872 1 0 0 0
-0.035478 0.056516606 0.0034032699 -1 0 0 0
0.035478 0.056284625 0.0031118395 1 0 0 0
0.035478 0.057295006 0.0035548776 1 0 0 0
-0.035478 0.058847073 0.003132045 -1 0 0 0
0.035478 0.058382265 0.0032863305 1 0 0 0
-0.035478 0.059634596 0.0036683446 -1 0 0 0
-0.035478 0.060457684 0.0038346583 -1 0 0 0
0.035478 0.060370371 0.0034545111 1 0 0 0
-0.035478 0.061662942 0.003546657 -1 0 0 0
0.035478 0.061946768 0.0036137633 1 0 0 0
-0.035478 0.062626325 0.0031034991 -1 0 0 0
0.035478 0.062451541 0.0038896562 1 0 0 0
-0.035478 0.063323289 0.0034523346 -1 0 0 0
0.035478 0.063593775 0.0036338763 1 0 0 0
-0.035478 0.064671576 0.0030690837 -1 0 0 0
0.035478 0.064495131 0.0034449687 1 0 0 0
0.035478 0.065582275 0.0034834889 1 0 0 0
0.035478 0.066610821 0.0033430869 1 0 0 0
-0.035478 0.06769903 0.003445385 -1 0 0 0
-0.035478 0.068254806 0.0037092781 -1 0 0 0
-0.035478 0.069573529 0.0034196358 -1 0 0 0
0.035478 0.069509409 0.0037659032 1 0 0 0
-0.035478 0.070322871 0.0031707068 -1 0 0 0
-0.035478 0.071169309 0.0032040465 -1 0 0 0
-0.035478 0.072007805 0.0035821025 -1 0 0 0
0.035478 0.072673649 0.0034591174 1 0 0 0
-0.035478 0.073640063 0.0033480204 -1 0 0 0
0.035478 0.073270239 0.003666051 1 0 0 0
-0.035478 0.075287126 0.0032046002 -1 0 0 0
0.035478 0.075019397 0.0039925422 1 0 0 0
0.035478 0.076536834 0.0035253246 1 0 0 0
-0.035478 0.077863954 0.0037260181 -1 0 0 0
0.035478 0.077896051 0.0036956666 1 0 0 0
-0.035478 0.078294963 0.0031429233 -1 0 0 0
0.035478 0.078319006 0.0037222172 1 0 0 0
0.035478 0.079515614 0.0033495585 1 0 0 0
-0.035478 0.080508113 0.0032743732 -1 0 0 0
-0.035478 0.081956081 0.0032131402 -1 0 0 0
0.035478 0.082148135 0.0037845138 1 0 0 0
0.035478 0.083492868 0.0033187056 1 0 0 0
-0.035478 0.084446669 0.0035557277 -1 0 0 0
0.035478 0.084907487 0.0033041053 1 0 0 0
-0.035478 0.085503489 0.0037580549 -1 0 0 0
-0.035478 0.086583033 0.0035416381 -1 0 0 0
0.035478 0.086818732 0.0035282895 1 0 0 0
-0.035478 0.087400168 0.0030239983 -1 0 0 0
0.035478 0.087466754 0.0036087215 1 0 0 0
-0.035478 0.088313289 0.0036050482 -1 0 0 0
0.035478 0.089785829 0.0037733456 1 0 0 0
-0.035478 0.090289786 0.0036468285 -1 0 0 0
0.035478 0.090154432 0.0030924247 1 0 0 0
-0.035478 0.091416068 0.0037071065 -1 0 0 0
0.035478 0.091765612 0.003513915 1 0 0 0
-0.035478 0.092732511 0.0033885487 -1 0 0 0
0.035478 0.09213528 0.0031476985 1 0 0 0
0.035478 0.093356267 0.0036501687 1 0 0 0
0.035478 0.094639473 0.0035520336 1 0 0 0
-0.035478 0.095809929 0.0030580107 -1 0 0 0
0.035478 0.09522438 0.0037398611 1 0 0 0
-0.035478 0.096452996 0.0035020937 -1 0 0 0
0.035478 0.096828006 0.0036464734 1 0 0 0
-0.035478 0.097543351 0.0033757407 -1 0 0 0
0.035478 0.097342178 0.0035619373 1 0 0 0
-0.035478 0.098168343 0.0031638553 -1 0 0 0
0.035478 0.098335117 0.003575196 1 0 0 0
0.035478 0.099730462 0.0035505686 1 0 0 0
-0.035478 0.1004348 0.003472849 -1 0 0 0
0.035478 0.10025955 0.0036040787 1 0 0 0
-0.035478 0.10133398 0.0032495586 -1 0 0 0
0.035478 0.10105474 0.0035886029 1 0 0 0
-0.035478 0.10261303 0.0034104849 -1 0 0 0
0.035478 0.10248925 0.0033442634 1 0 0 0
-0.035478 0.10355211 0.0036543477 -1 0 0 0
0.035478 0.10359178 0.0036141202 1 0 0 0
0.035478 0.10446686 0.0034979901 1 0 0 0
0.035478 0.105216 0.0032452997 1 0 0 0
-0.035478 0.10652774 0.0033852283 -1 0 0 0
0.035478 0.1068567 0.0033438979 1 0 0 0
-0.035478 0.10747701 0.0036278157 -1 0 0 0
0.035478 0.1073008 0.0036261126 1 0 0 0
-0.035478 0.1083049 0.0036732126 -1 0 0 0
0.035478 0.10839315 0.0035770498 1 0 0 0
-0.035478 0.10911524 0.0031658015 -1 0 0 0
0.035478 0.1097205 0.0036865331 1 0 0 0
-0.035478 0.1109533 0.0030259294 -1 0 0 0
0.035478 0.1112437 0.0038985908 1 0 0 0
-0.035478 0.11320921 0.0037549471 -1 0 0 0
0.035478 0.11311593 0.0033788872 1 0 0 0
-0.035478 0.11415918 0.0034916566 -1 0 0 0
0.035478 0.11405276 0.0038002008 1 0 0 0
0.035478 0.1156287 0.003275465 1 0 0 0
-0.035478 0.11645068 0.0032747991 -1 0 0 0
0.035478 0.11646937 0.0036864318 1 0 0 0
-0.035478 0.11784759 0.0038489518 -1 0 0 0
0.035478 0.11743561 0.0035826769 1 0 0 0
-0.035478 0.11830745 0.0033411309 -1 0 0 0
0.035478 0.11822861 0.003169195 1 0 0 0
-0.035478 0.11932367 0.0036831549 -1 0 0 0
0.035478 0.11949064 0.0034607919 1 0 0 0
-0.035478 0.12093008 0.0030324359 -1 0 0 0
0.035478 0.12020624 0.0033714427 1 0 0 0
-0.035478 0.1213681 0.0037812593 -1 0 0 0
-0.035478 0.12251572 0.0033899446 -1 0 0 0
0.035478 0.12214634 0.0034082378 1 0 0 0
-0.035478 0.1231785 0.0033070149 -1 0 0 0
0.035478 0.12348812 0.0034984297 1 0 0 0
-0.035478 0.12458583 0.0036276218 -1 0 0 0
0.035478 0.12422749 0.003214149 1 0 0 0
-0.035478 0.125314 0.003163944 -1 0 0 0
-0.035478 0.12629102 0.003926977 -1 0 0 0
0.035478 0.12643893 0.0034788514 1 0 0 0
0.035478 0.12741596 0.0035414298 1 0 0 0
-0.035478 0.12934539 0.003433008 -1 0 0 0
-0.035478 0.13077784 0.0038972339 -1 0 0 0
0.035478 0.13070323 0.0037918531 1 0 0 0
-0.035478 0.13174784 0.0034667158 -1 0 0 0
-0.035478 0.13250108 0.0033952559 -1 0 0 0
0.035478 0.1328032 0.0033973374 1 0 0 0
-0.035478 0.13382728 0.0035070765 -1 0 0 0
0.035478 0.13381247 0.0032230129 1 0 0 0
-0.035478 0.13477322 0.0033305273 -1 0 0 0
0.035478 0.13443071 0.0037539173 1 0 0 0
-0.035478 0.13544723 0.0034018112 -1 0 0 0
0.035478 0.13519628 0.003410371 1 0 0 0
-0.035478 0.13637218 0.0032998433 -1 0 0 0
0.035478 0.13619936 0.003383691 1 0 0 0
-0.035478 0.13758284 0.0034556761 -1 0 0 0
0.035478 0.13754939 0.0034901213 1 0 0 0
-0.035478 0.13852482 0.0038714437 -1 0 0 0
0.035478 0.13848427 0.0033773782 1 0 0 0
-0.035478 0.13959068 0.003660443 -1 0 0 0
0.035478 0.13911992 0.0036806092 1 0 0 0
-0.035478 0.14050953 0.0034721708 -1 0 0 0
0.035478 0.1400255 0.0039105439 1 0 0 0
0.035478 0.14155668 0.0038367854 1 0 0 0
-0.035478 0.14269862 0.0037913446 -1 0 0 0
-0.035478 0.14379247 0.0034465233 -1 0 0 0
0.035478 0.1438417 0.003538056 1 0 0 0
-0.035478 0.14535868 0.0034444085 -1 0 0 0
0.035478 0.14522907 0.0035481825 1 0 0 0
-0.035478 0.14636979 0.0037606179 -1 0 0 0
0.035478 0.14681801 0.0038342997 1 0 0 0
-0.035478 0.14772235 0.0036968961 -1 0 0 0
0.035478 0.14780821 0.0039559752 1 0 0 0
-0.035478 0.1480809 0.0036501284 -1 0 0 0
0.035478 0.14814773 0.0033480076 1 0 0 0
0.035478 0.149188 0.0037312491 1 0 0 0
-0.035478 0.15091406 0.0032897913 -1 0 0 0
0.035478 0.15057251 0.0030587586 1 0 0 0
0.035478 0.15148687 0.0037840325 1 0 0 0
-0.035478 0.15239578 0.0034045361 -1 0 0 0
0.035478 0.15266418 0.003521821 1 0 0 0
-0.035478 0.15337302 0.003090702 -1 0 0 0
0.035478 0.15340246 0.0033661539 1 0 0 0
-0.035478 0.15453391 0.0036241701 -1 0 0 0
0.035478 0.15587804 0.0036676556 1 0 0 0
-0.035478 0.15694022 0.0030667628 -1 0 0 0
0.035478 0.1578415 0.0035658772 1 0 0 0
-0.035478 0.15844697 0.0037555699 -1 0 0 0
-0.035478 0.15933502 0.0038431918 -1 0 0 0
-0.035478 0.1605418 0.0035365093 -1 0 0 0
0.035478 0.16027731 0.003542572 1 0 0 0
-0.035478 0.16157769 0.0031992632 -1 0 0 0
0.035478 0.16144438 0.00344868 1 0 0 0
-0.035478 0.16246273 0.0032524175 -1 0 0 0
0.035478 0.1622231 0.0034968858 1 0 0 0
-0.035478 0.1633141 0.0033196432 -1 0 0 0
0.035478 0.16390572 0.0035735986 1 0 0 0
-0.035478 0.16550215 0.0032475973 -1 0 0 0
0.035478 0.16537835 0.0034027435 1 0 0 0
-0.035478 0.16651915 0.0036694109 -1 0 0 0
0.035478 0.16632155 0.0032317722 1 0 0 0
-0.035478 0.16726477 0.0034546789 -1 0 0 0
-0.035478 0.16965173 0.0031813334 -1 0 0 0
0.035478 0.1694625 0.0034528545 1 0 0 0
-0.035478 0.17082673 0.003487532 -1 0 0 0
0.035478 0.17062348 0.0035808319 1 0 0 0
-0.035478 0.17150122 0.0035508778 -1 0 0 0
0.035478 0.17180359 0.0035802526 1 0 0 0
-0.035478 0.17275719 0.0031701555 -1 0 0 0
0.035478 0.17254317 0.0036053709 1 0 0 0
0.035478 0.17353266 0.003418854 1 0 0 0
-0.035478 0.17460363 0.003489227 -1 0 0 0
0.035478 0.17473739 0.0033885909 1 0 0 0
-0.035478 0.17538883 0.0035231917 -1 0 0 0
0.035478 0.17543949 0.0034299698 1 0 0 0
-0.035478 0.17640875 0.0030304156 -1 0 0 0
0.035478 0.17648633 0.0034925081 1 0 0 0
-0.035478 0.17758201 0.0039326833 -1 0 0 0
0.035478 0.17765686 0.003681401 1 0 0 0
-0.035478 0.17858545 0.003304342 -1 0 0 0
-0.035478 0.17995405 0.0035338539 -1 0 0 0
0.035478 0.17933831 0.0033617057 1 0 0 0
-0.035478 0.18068151 0.0035020669 -1 0 0 0
0.035478 0.18181309 0.0039054488 1 0 0 0
-0.035478 0.1826252 0.0039489106 -1 0 0 0
0.035478 0.18238425 0.0035465697 1 0 0 0
-0.035478 0.18445507 0.0034218994 -1 0 0 0
0.035478 0.18469146 0.0032779914 1 0 0 0
-0.035478 0.18530506 0.0035768156 -1 0 0 0
0.035478 0.18569434 0.0033406029 1 0 0 0
0.035478003 0.18668665 0.0038585458 1 0 0 0
-0.035478 0.18733145 0.0034810088 -1 0 0 0
-0.035478 0.18804713 0.0036951075 -1 0 0 0
0.035478 0.18844171 0.0032574339 1 0 0 0
-0.035478 0.18954407 0.0035175153 -1 0 0 0
0.035478 0.18935758 0.0034829187 1 0 0 0
0.035478 0.19020662 0.0030716052 1 0 0 0
-0.034251254 0.19136766 0.00378105 -0.4910692 0.87111193 0.0038796298 0
-0.033840105 0.19159986 0.0036845617 -0.4910692 0.87111193 0.0038796298 0
0.033317231 0.19189498 0.003602294 0.4910692 0.87111193 0.0038796337 0
0.034292631 0.19134653 0.0032881077 0.4910692 0.87111193 0.0038796337 0
-0.032455981 0.19237971 0.0037775256 -0.4910692 0.87111193 0.0038796298 0
-0.031623658 0.19285099 0.0033112715 -0.4910692 0.87111193 0.0038796298 0
0.032046791 0.19261025 0.0038062481 0.4910692 0.87111193 0.0038796337 0
-0.031191438 0.19309358 0.0035520643 -0.4910692 0.87111193 0.0038796298 0
-0.030926775 0.19324104 0.0039400994 -0.4910692 0.87111193 0.0038796298 0
-0.029915877 0.19381389 0.0032721998 -0.4910692 0.87111193 0.0038796298 0
0.03065435 0.19339673 0.0034665794 0.4910692 0.87111193 0.0038796337 0
0.031351075 0.1930026 0.0037736699 0.4910692 0.87111193 0.0038796337 0
-0.029265203 0.1941817 0.0030457915 -0.4910692 0.87111193 0.0038796298 0
0.028345168 0.19469909 0.0033268773 0.4910692 0.87111193 0.0038796337 0
0.029117543 0.19426256 0.0035808738 0.4910692 0.87111193 0.0038796337 0
-0.027077984 0.1954111 0.0038557949 -0.4910692 0.87111193 0.0038796298 0
0.026396144 0.19579686 0.0035395445 0.4910692 0.87111193 0.0038796337 0
0.027438279 0.19520926 0.0035664549 0.4910692 0.87111193 0.0038796337 0
-0.025517829 0.19629277 0.0033648955 -0.4910692 0.87111193 0.0038796298 0
0.024942439 0.19661672 0.0034567465 0.4910692 0.87111193 0.0038796337 0
0.025867531 0.19609433 0.0036570951 0.4910692 0.87111193 0.0038796337 0
0.022701455 0.19788036 0.0033811228 0.4910692 0.87111193 0.0038796337 0
0.023233939 0.19758037 0.0033421814 0.4910692 0.87111193 0.0038796337 0
0.02412886 0.19707714 0.0030569814 0.4910692 0.87111193 0.0038796337 0
-0.021621967 0.19848882 0.0034018292 -0.4910692 0.87111193 0.0038796298 0
-0.02082891 0.19893639 0.0032886125 -0.4910692 0.87111193 0.0038796298 0
0.020987935 0.19884627 0.0033931185 0.4910692 0.87111193 0.0038796337 0
0.02132646 0.19865513 0.0034617458 0.4910692 0.87111193 0.0038796337 0
-0.020661067 0.19903043 0.0034186437 -0.4910692 0.87111193 0.0038796298 0
-0.019366752 0.1997595 0.0035445071 -0.4910692 0.87111193 0.0038796298 0
0.019657943 0.19959465 0.0037048808 0.4910692 0.87111193 0.0038796337 0
0.020336399 0.19921255 0.0036172715 0.4910692 0.87111193 0.0038796337 0
-0.018487649 0.20025341 0.0039184471 -0.4910692 0.87111193 0.0038796298 0
0.017490786 0.20081729 0.0034864773 0.4910692 0.87111193 0.0038796337 0
0.018643115 0.20016888 0.0032205691 0.4910692 0.87111193 0.0038796337 0
-0.016684959 0.20127071 0.0036734839 -0.49106896 0.87111211 0.0038794482 0
-0.015818441 0.20175843 0.0038461164 -0.49106896 0.87111211 0.0038794479 0
0.01569522 0.20182769 0.0038932348 0.49106896 0.87111211 0.0038794512 0
0.016522845 0.20136282 0.0035114293 0.49106896 0.87111211 0.0038794512 0
-0.015135827 0.20214474 0.0035057904 -0.49106896 0.87111211 0.0038794479 0
-0.014096102 0.2027328 0.0030715046 -0.49106896 0.87111211 0.0038794479 0
0.013717318 0.20294338 0.003738014 0.49106896 0.87111211 0.0038794512 0
0.014298049 0.20261729 0.0034468269 0.49106896 0.87111211 0.0038794512 0
-0.012940929 0.20338216 0.0034876256 -0.49106896 0.87111211 0.0038794479 0
-0.011884034 0.20397829 0.0034149778 -0.49106896 0.87111211 0.0038794479 0
0.01229299 0.20374787 0.0033880675 0.49106896 0.87111211 0.0038794512 0
0.01332084 0.20316818 0.0034467017 0.49106896 0.87111211 0.0038794512 0
-0.011631734 0.20411889 0.003781158 -0.49106896 0.87111211 0.0038794479 0
-0.010562624 0.20472275 0.0035181355 -0.49106896 0.87111211 0.0038794482 0
0.010728799 0.2046288 0.003574511 0.49106896 0.87111211 0.0038794512 0
0.011784234 0.20403489 0.0033382005 0.49106896 0.87111211 0.0038794512 0
-0.0095146969 0.20531383 0.0034408211 -0.49106896 0.87111211 0.0038794479 0
-0.0087879971 0.20572355 0.0034228328 -0.49106896 0.87111211 0.0038794479 0
0.0084002055 0.20594218 0.0034212214 0.49106896 0.87111211 0.0038794512 0
0.0090130204 0.20559749 0.0032460615 0.49106896 0.87111211 0.0038794512 0
-0.007249794 0.20659161 0.0032165404 -0.49106896 0.87111211 0.0038794479 0
0.0068148631 0.20683356 0.0039435741 0.49106896 0.87111211 0.0038794512 0
0.0078501543 0.20625082 0.0037451303 0.49106896 0.87111211 0.0038794512 0
0.0080537638 0.20613922 0.0030313309 0.49106896 0.87111211 0.0038794512 0
-0.005869275 0.20736751 0.0037453778 -0.49106896 0.87111211 0.0038794479 0
0.0054321513 0.20761438 0.0036430703 0.49106896 0.87111211 0.0038794512 0
-0.0043503148 0.20822635 0.0031640041 -0.49106896 0.87111211 0.0038794479 0
-0.0039259852 0.20846234 0.0038875071 -0.49106896 0.87111211 0.0038794479 0
0.0035674076 0.20866506 0.0037577804 0.49106896 0.87111211 0.0038794512 0
0.0046148915 0.20807476 0.0037149391 0.49106896 0.87111211 0.0038794512 0
-0.0023226782 0.20936783 0.0035141688 -0.49106896 0.87111211 0.0038794482 0
-0.0015194424 0.20982206 0.0031970511 -0.49106896 0.87111211 0.0038794479 0
0.0023798135 0.20933695 0.0032133695 0.49106896 0.87111211 0.0038794512 0
0.00060389854 0.21047595 0.0033792378 0.86344337 0.50444072 0.0022465 0
-0.00042200001 0.21121876 0.0038309707 -1 0 0 0
0.00042200001 0.21149659 0.0030571083 1 0 0 0
0.00042200001 0.21280575 0.0037603457 1 0 0 0
-0.00042200001 0.21328457 0.0037607979 -1 0 0 0
-0.00042200001 0.21497488 0.003598857 -1 0 0 0
0.00042200001 0.21461315 0.0036794273 1 0 0 0
-0.00042200001 0.21510638 0.0032614588 -1 0 0 0
0.00042200001 0.21578592 0.003758491 1 0 0 0
-0.00042200001 0.2169444 0.0034339395 -1 0 0 0
0.00042200004 0.21635877 0.003621341 1 0 0 0
-0.00042200001 0.21823283 0.0033362173 -1 0 0 0
0.00042200001 0.21832034 0.0035190559 1 0 0 0
-0.00042200001 0.21952744 0.0031134975 -1 0 0 0
0.00042200001 0.21938193 0.0034531658 1 0 0 0
-0.00028645163 0.22025603 0.0037160967 -0.70710677 0.7070998 0.0031491325 0
0.00042200001 0.22000882 0.0036480734 1 0 0 0
-0.035323258 7.0394177e-05 0.0043000863 -0.70710677 -0.70710677 0 0
-0.034683801 6.2999999e-05 0.0044517634 0 -1 0 0
-0.03350031 6.2999999e-05 0.0043893368 0 -1 0 0
-0.032109492 6.2999999e-05 0.0040594679 0 -1 0 0
-0.031025087 6.2999999e-05 0.0048930231 0 -1 0 0
-0.030329794 6.2999999e-05 0.0042122896 0 -1 0 0
-0.02951872 6.2999999e-05 0.0046725064 0 -1 0 0
-0.028752821 6.2999999e-05 0.0046745809 0 -1 0 0
-0.027006989 6.2999999e-05 0.0042111739 0 -1 0 0
-0.025342753 6.2999999e-05 0.0041064536 0 -1 0 0
-0.024582732 6.2999999e-05 0.0046104225 0 -1 0 0
-0.022677032 6.2999999e-05 0.0048632752 0 -1 0 0
-0.021368336 6.2999999e-05 0.0044359397 0 -1 0 0
-0.020336071 6.2999999e-05 0.0044116639 0 -1 0 0
-0.019401828 6.2999999e-05 0.0044360552 0 -1 0 0
-0.018461075 6.2999999e-05 0.0048207394 0 -1 0 0
-0.017596215 6.2999999e-05 0.004370492 0 -1 0 0
-0.015639018 6.2999999e-05 0.0042191967 0 -1 0 0
-0.011334965 6.2999999e-05 0.0043904213 0 -1 0 0
-0.010507522 6.2999999e-05 0.0040863464 0 -1 0 0
-0.0093752155 6.2999999e-05 0.0049347579 0 -1 0 0
-0.0086216899 6.2999999e-05 0.0043329271 0 -1 0 0
-0.0076860199 6.2999999e-05 0.0040923269 0 -1 0 0
-0.0063487091 6.2999999e-05 0.0041490914 0 -1 0 0
-0.0055025062 6.2999999e-05 0.0043683983 0 -1 0 0
-0.0046068723 6.2999999e-05 0.0045460192 0 -1 0 0
-0.0039276062 6.2999999e-05 0.0042394376 0 -1 0 0
-0.0022610573 6.2999999e-05 0.0045205173 0 -1 0 0
-0.0016447467 6.2999999e-05 0.0048594777 0 -1 0 0
0.0016394251 6.2999999e-05 0.0043407688 0 -1 0 0
0.0023504915 6.2999999e-05 0.004386005 0 -1 0 0
0.0035392612 6.2999999e-05 0.0045356536 0 -1 0 0
0.0043417886 6.2999999e-05 0.0043288735 0 -1 0 0
0.0056072748 6.2999999e-05 0.0042838203 0 -1 0 0
0.006102453 6.2999999e-05 0.0048525291 0 -1 0 0
0.007342455 6.2999999e-05 0.0049768984 0 -1 0 0
0.0084376941 6.2999999e-05 0.0043859938 0 -1 0 0
0.0096803019 6.2999999e-05 0.0042788084 0 -1 0 0
0.012636 6.2999999e-05 0.004532632 0 -1 0 0
0.013880545 6.2999999e-05 0.0041831448 0 -1 0 0
0.01452883 6.2999999e-05 0.0044212248 0 -1 0 0
0.015333462 6.2999999e-05 0.0042685918 0 -1 0 0
0.018471176 6.2999999e-05 0.0047998149 0 -1 0 0
0.019353298 6.2999999e-05 0.0043826853 0 -1 0 0
0.020671774 6.2999999e-05 0.0044269934 0 -1 0 0
0.021108298 6.2999999e-05 0.0041515594 0 -1 0 0
0.0225685 6.2999999e-05 0.0047061294 0 -1 0 0
0.023491848 6.2999999e-05 0.0047328193 0 -1 0 0
0.025145108 6.2999999e-05 0.0041407119 0 -1 0 0
0.027355861 6.2999999e-05 0.0045588315 0 -1 0 0
0.028605033 6.2999999e-05 0.0044210861 0 -1 0 0
0.029373489 6.2999999e-05 0.0045986748 0 -1 0 0
0.032027856 6.2999999e-05 0.0048253355 0 -1 0 0
0.03317434 6.2999999e-05 0.0040531927 0 -1 0 0
0.035380293 0.00032774528 0.0047768028 0.83205032 -0.5547002 0 0
-0.035478 0.0014726853 0.0045644557 -1 0 0 0
-0.035478 0.0022013928 0.0049997377 -1 0 0 0
-0.035478 0.0036476338 0.0045139301 -1 0 0 0
0.035478 0.0035460507 0.0044683106 1 0 0 0
-0.035478 0.004643261 0.004714651 -1 0 0 0
0.035478 0.0047385921 0.0046100155 1 0 0 0
-0.035478 0.0057984442 0.0042501395 -1 0 0 0
0.035478 0.0056040464 0.0049464433 1 0 0 0
0.035478 0.0061111478 0.0049011819 1 0 0 0
-0.035478 0.0075431126 0.0044300198 -1 0 0 0
0.035478 0.0076645655 0.0042534429 1 0 0 0
0.035478 0.0085989116 0.0045462088 1 0 0 0
0.035478 0.0093096849 0.0046717403 1 0 0 0
-0.035478 0.010743028 0.0045613805 -1 0 0 0
0.035478 0.010396211 0.004160007 1 0 0 0
-0.035478 0.011369042 0.0046698381 -1 0 0 0
-0.035478 0.012490355 0.0047259126 -1 0 0 0
-0.035478 0.013758247 0.0047057159 -1 0 0 0
0.035478 0.013429517 0.0047413968 1 0 0 0
-0.035478 0.014103877 0.004289357 -1 0 0 0
0.035478 0.014533771 0.0046984465 1 0 0 0
-0.035478 0.015232458 0.004993347 -1 0 0 0
0.035478 0.015335795 0.00406247 1 0 0 0
-0.035478 0.016832195 0.0045379223 -1 0 0 0
0.035478 0.01637301 0.0045310282 1 0 0 0
-0.035478 0.017226342 0.0046617244 -1 0 0 0
0.035478 0.017613182 0.0047054044 1 0 0 0
-0.035478 0.018384704 0.0048172311 -1 0 0 0
-0.035478 0.019777404 0.0043438678 -1 0 0 0
0.035478 0.019842783 0.0046975012 1 0 0 0
-0.035478 0.020376682 0.0047178478 -1 0 0 0
0.035478 0.020787753 0.0044448609 1 0 0 0
-0.035478 0.021061612 0.0047630565 -1 0 0 0
0.035478 0.021312762 0.0047528171 1 0 0 0
-0.035478 0.022995457 0.0049353102 -1 0 0 0
0.035478 0.022484111 0.0047067516 1 0 0 0
-0.035478 0.023945974 0.0040525077 -1 0 0 0
0.035478 0.023665078 0.0040394594 1 0 0 0
-0.035478 0.024180295 0.0045697358 -1 0 0 0
0.035478 0.025633164 0.0043582669 1 0 0 0
-0.035478 0.0271194 0.0042164898 -1 0 0 0
0.035478 0.027729584 0.0046456186 1 0 0 0
-0.035478 0.028525788 0.0048099705 -1 0 0 0
0.035478 0.028599927 0.0045609432 1 0 0 0
-0.035478 0.02983081 0.0040757041 -1 0 0 0
0.035478 0.029401794 0.0044861101 1 0 0 0
-0.035478 0.030408137 0.0047604404 -1 0 0 0
0.035478 0.030465052 0.0042336388 1 0 0 0
0.035478 0.031649292 0.004338426 1 0 0 0
0.035478 0.032319028 0.0044619204 1 0 0 0
0.035478 0.033216693 0.0048440984 1 0 0 0
-0.035478 0.034620173 0.0044489484 -1 0 0 0
-0.035478 0.036487706 0.004607989 -1 0 0 0
0.035478 0.036226999 0.0044793282 1 0 0 0
0.035478 0.037437335 0.00487694 1 0 0 0
-0.035478 0.038626157 0.0044231657 -1 0 0 0
0.035478 0.038688805 0.0044854754 1 0 0 0
0.035478 0.039702125 0.0045230621 1 0 0 0
-0.035478 0.040509518 0.0045341714 -1 0 0 0
-0.035478 0.041170567 0.0044549638 -1 0 0 0
0.035478 0.041386146 0.0046990318 1 0 0 0
-0.035478 0.042424515 0.0048866617 -1 0 0 0
0.035478 0.042554647 0.0042646737 1 0 0 0
-0.035478 0.043401096 0.004678125 -1 0 0 0
0.035478 0.043388769 0.0044012526 1 0 0 0
-0.035478 0.044526789 0.0042201411 -1 0 0 0
0.035478 0.044432811 0.0044924608 1 0 0 0
0.035478 0.045391396 0.0048039374 1 0 0 0
-0.035478 0.046950065 0.0041929828 -1 0 0 0
0.035478 0.046347402 0.0045332722 1 0 0 0
-0.035478 0.047894515 0.0044009038 -1 0 0 0
0.035478 0.047718912 0.0046753325 1 0 0 0
-0.035478 0.048879962 0.0045927111 -1 0 0 0
0.035478 0.048797175 0.0046876553 1 0 0 0
-0.035478 0.049654987 0.0044401218 -1 0 0 0
-0.035478 0.050282568 0.0046548704 -1 0 0 0
0.035478 0.050188772 0.0044519831 1 0 0 0
-0.035478 0.051005829 0.0045874058 -1 0 0 0
0.035478 0.051155251 0.0047403006 1 0 0 0
-0.035478 0.052446507 0.0044577015 -1 0 0 0
0.035478 0.052127928 0.0047007757 1 0 0 0
-0.035478 0.053703249 0.0047658361 -1 0 0 0
0.035478 0.053138014 0.0044172802 1 0 0 0
-0.035478 0.054125749 0.0041082175 -1 0 0 0
0.035478 0.054676194 0.0047779605 1 0 0 0
0.035478 0.055528067 0.0047019906 1 0 0 0
-0.035478 0.056798875 0.0047812988 -1 0 0 0
0.035478 0.05675 0.0045261234 1 0 0 0
-0.035478 0.057298709 0.0049246349 -1 0 0 0
-0.035478 0.059196889 0.0042887288 -1 0 0 0
0.035478 0.059545383 0.0043459293 1 0 0 0
0.035478 0.060281564 0.0045510675 1 0 0 0
-0.035478 0.06187892 0.0048943795 -1 0 0 0
0.035478 0.061756119 0.0047170096 1 0 0 0
0.035478 0.062456094 0.0042566876 1 0 0 0
-0.035478 0.064592808 0.0045293439 -1 0 0 0
0.035478 0.064265139 0.0046946327 1 0 0 0
-0.035478 0.065360233 0.0047503016 -1 0 0 0
-0.035478 0.066626519 0.0047071264 -1 0 0 0
0.035478 0.06606137 0.0044693756 1 0 0 0
-0.035478 0.067577109 0.0047096396 -1 0 0 0
0.035478 0.06783279 0.0042411489 1 0 0 0
-0.035478 0.068360701 0.0044713528 -1 0 0 0
0.035478 0.068500318 0.0048776618 1 0 0 0
-0.035478 0.069530845 0.0048891669 -1 0 0 0
0.035478 0.069496296 0.0047864532 1 0 0 0
0.035478 0.070501596 0.0048357798 1 0 0 0
-0.035478 0.072634108 0.004049845 -1 0 0 0
0.035478 0.072968043 0.004523207 1 0 0 0
-0.035478 0.073996574 0.0049311663 -1 0 0 0
0.035478 0.073841557 0.0040172767 1 0 0 0
-0.035478 0.074559815 0.0044953092 -1 0 0 0
-0.035478 0.075075962 0.0049900366 -1 0 0 0
-0.035478 0.076686367 0.0045906529 -1 0 0 0
-0.035478 0.07735081 0.004667887 -1 0 0 0
0.035478 0.077629529 0.0047135097 1 0 0 0
-0.035478 0.078751102 0.0045989603 -1 0 0 0
0.035478 0.078630649 0.0046548452 1 0 0 0
-0.035478 0.079173341 0.0046920422 -1 0 0 0
0.035478 0.079586804 0.0041203806 1 0 0 0
0.035478 0.080971003 0.0049939789 1 0 0 0
-0.035478 0.081897661 0.0041810446 -1 0 0 0
0.035478 0.081349447 0.0042428705 1 0 0 0
-0.035478 0.082474053 0.0043240702 -1 0 0 0
-0.035478 0.083920702 0.0043147812 -1 0 0 0
0.035478 0.083250985 0.004120708 1 0 0 0
-0.035478 0.08442948 0.0047047725 -1 0 0 0
0.035478 0.084366821 0.0043111555 1 0 0 0
0.035478 0.085422076 0.0042799953 1 0 0 0
-0.035478 0.086146973 0.0048977369 -1 0 0 0
0.035478 0.086592712 0.0042652842 1 0 0 0
0.035478 0.087721676 0.0049084583 1 0 0 0
-0.035478 0.088631622 0.0048858314 -1 0 0 0
0.035478 0.08889477 0.0042889267 1 0 0 0
0.035478 0.089026287 0.0040937639 1 0 0 0
-0.035478 0.090505295 0.0043703094 -1 0 0 0
0.035478 0.090188131 0.0046344274 1 0 0 0
0.035478 0.091579191 0.0044702352 1 0 0 0
-0.035478 0.092382647 0.0046670679 -1 0 0 0
-0.035478 0.093628392 0.0042634341 -1 0 0 0
0.035478 0.093462929 0.0040057949 1 0 0 0
-0.035478 0.095428288 0.0040981709 -1 0 0 0
-0.035477996 0.096308962 0.0046176407 -1 0 0 0
0.035478 0.096838385 0.0042880112 1 0 0 0
-0.035478 0.097331382 0.004116971 -1 0 0 0
-0.035478003 0.09854766 0.0044670794 -1 0 0 0
0.035478 0.09844742 0.0042240475 1 0 0 0
-0.035478 0.09964408 0.0046681864 -1 0 0 0
0.035478 0.099560231 0.0040343963 1 0 0 0
-0.035478 0.10037636 0.0045395754 -1 0 0 0
0.035478 0.10053065 0.0043120678 1 0 0 0
-0.035478 0.10179697 0.0046057422 -1 0 0 0
0.035478 0.10174841 0.0042968015 1 0 0 0
-0.035478 0.10231265 0.0041806987 -1 0 0 0
0.035478 0.10299328 0.004202941 1 0 0 0
-0.035478 0.10336631 0.0044867224 -1 0 0 0
0.035478 0.10338215 0.004530007 1 0 0 0
-0.035478 0.10469302 0.0046142344 -1 0 0 0
0.035478 0.10489396 0.0045949016 1 0 0 0
-0.035478 0.105804 0.0043650931 -1 0 0 0
0.035478 0.10790057 0.0040964214 1 0 0 0
-0.035478 0.1088442 0.0049226792 -1 0 0 0
0.035478 0.10853522 0.0044913376 1 0 0 0
-0.035478 0.10966086 0.0043835379 -1 0 0 0
0.035478 0.10925747 0.0040967157 1 0 0 0
-0.035478 0.11008166 0.0046793665 -1 0 0 0
0.035478 0.1104207 0.0044696284 1 0 0 0
0.035478 0.11180643 0.0044118105 1 0 0 0
-0.035478 0.1126441 0.0046295151 -1 0 0 0
0.035478 0.11273108 0.0049015293 1 0 0 0
-0.035478 0.11303031 0.004104062 -1 0 0 0
0.035478 0.11343545 0.0047526611 1 0 0 0
-0.035478 0.11443187 0.0046444363 -1 0 0 0
0.035478 0.1144544 0.0043987124 1 0 0 0
-0.035478 0.11565154 0.0043064486 -1 0 0 0
0.035478 0.11556094 0.0044648671 1 0 0 0
-0.035478 0.1161875 0.0047299685 -1 0 0 0
0.035478 0.11680762 0.0046921871 1 0 0 0
0.035478 0.11730953 0.0048041223 1 0 0 0
-0.035478 0.11836337 0.0045730281 -1 0 0 0
0.035478 0.11859041 0.004092617 1 0 0 0
-0.035478 0.11986165 0.0045426404 -1 0 0 0
0.035478 0.11955166 0.004729812 1 0 0 0
-0.035478 0.12060124 0.0043570674 -1 0 0 0
0.035478 0.12054831 0.0047241366 1 0 0 0
-0.035478 0.12162667 0.0040578647 -1 0 0 0
0.035478 0.12187831 0.0041396497 1 0 0 0
-0.035478 0.12261364 0.0043940502 -1 0 0 0
0.035478 0.12232216 0.0046344167 1 0 0 0
-0.035478 0.12313884 0.0046945256 -1 0 0 0
0.035478 0.12360927 0.0046855216 1 0 0 0
-0.035478 0.12484669 0.004517376 -1 0 0 0
0.035478 0.12424973 0.0048756707 1 0 0 0
-0.035478 0.12509805 0.0044845315 -1 0 0 0
0.035478 0.12542242 0.0043874001 1 0 0 0
-0.035478 0.12627883 0.0045589483 -1 0 0 0
0.035478 0.12637286 0.0041039572 1 0 0 0
-0.035478 0.12754624 0.0045481641 -1 0 0 0
-0.035478 0.12854099 0.0043739709 -1 0 0 0
0.035478 0.12842821 0.0045629931 1 0 0 0
0.035478 0.12961528 0.0046785455 1 0 0 0
-0.035478 0.13027163 0.0043141656 -1 0 0 0
-0.035478 0.13142383 0.0046987701 -1 0 0 0
0.035478 0.13151442 0.0043577063 1 0 0 0
-0.035478 0.13210495 0.0045401109 -1 0 0 0
0.035478 0.13242017 0.0044801687 1 0 0 0
-0.035478 0.1331275 0.0041932403 -1 0 0 0
0.035478 0.13380058 0.0041440148 1 0 0 0
0.035478 0.13451113 0.0047320072 1 0 0 0
-0.035478 0.13586384 0.0047733779 -1 0 0 0
0.035478 0.1359679 0.0042458707 1 0 0 0
0.035478 0.13610582 0.0041687996 1 0 0 0
-0.035478 0.13767081 0.0043114237 -1 0 0 0
0.035478 0.13758728 0.0043693567 1 0 0 0
0.035478 0.13879199 0.0045033195 1 0 0 0
-0.035478 0.13910317 0.0040100324 -1 0 0 0
0.035478 0.13938984 0.0044132499 1 0 0 0
-0.035478 0.14010081 0.0041670045 -1 0 0 0
0.035478 0.14032184 0.0046993094 1 0 0 0
-0.035478 0.14119577 0.0046197721 -1 0 0 0
0.035478 0.14170456 0.0044510337 1 0 0 0
-0.035478 0.14262405 0.0045345225 -1 0 0 0
0.035478 0.14222564 0.0042582978 1 0 0 0
-0.035478 0.14363584 0.0045286524 -1 0 0 0
0.035478 0.14331689 0.0047750128 1 0 0 0
-0.035478 0.14497788 0.0043003424 -1 0 0 0
-0.035478 0.14580964 0.0044808388 -1 0 0 0
0.035478 0.14525254 0.0048431335 1 0 0 0
-0.035478 0.14692295 0.0045631845 -1 0 0 0
0.035478 0.14674217 0.0042789537 1 0 0 0
-0.035478 0.14730246 0.0045827795 -1 0 0 0
0.035478 0.14741263 0.0046654902 1 0 0 0
-0.035478 0.1494848 0.0045733163 -1 0 0 0
-0.035478 0.15017958 0.0040207212 -1 0 0 0
-0.035478 0.15102407 0.0045323619 -1 0 0 0
0.035478 0.15166257 0.0046563377 1 0 0 0
-0.035478 0.15249065 0.0042562671 -1 0 0 0
-0.035478 0.15397342 0.0042330259 -1 0 0 0
0.035478 0.15384731 0.0049115466 1 0 0 0
-0.035478 0.15460099 0.0042292918 -1 0 0 0
0.035478 0.15446033 0.0042408425 1 0 0 0
0.035478 0.15566535 0.0046481001 1 0 0 0
-0.035478 0.15678723 0.0041246517 -1 0 0 0
0.035478 0.15678079 0.0041361535 1 0 0 0
-0.035478 0.15776739 0.0042138984 -1 0 0 0
0.035478 0.15759301 0.0045473836 1 0 0 0
-0.035478 0.15924087 0.004062037 -1 0 0 0
0.035478 0.15973058 0.0042955563 1 0 0 0
-0.035478 0.16054383 0.0045769298 -1 0 0 0
0.035478 0.16066197 0.0045699598 1 0 0 0
-0.035478 0.16151488 0.0043400503 -1 0 0 0
0.035478 0.16181046 0.0049602129 1 0 0 0
-0.035478 0.16280873 0.004723168 -1 0 0 0
0.035478 0.16282609 0.004842306 1 0 0 0
0.035478 0.16314001 0.0042876541 1 0 0 0
-0.035478 0.16562273 0.0044260584 -1 0 0 0
0.035478 0.16526777 0.0041980175 1 0 0 0
-0.035478 0.16687162 0.004008967 -1 0 0 0
0.035478 0.16630314 0.0044815987 1 0 0 0
-0.035478 0.16766004 0.0042296699 -1 0 0 0
0.035478 0.16769214 0.0043203295 1 0 0 0
-0.035478 0.16851456 0.0043641534 -1 0 0 0
-0.035478 0.16975756 0.0040784045 -1 0 0 0
-0.035478 0.17064889 0.0041766204 -1 0 0 0
0.035478 0.17029789 0.0045073619 1 0 0 0
-0.035478 0.17122963 0.0042784419 -1 0 0 0
0.035478 0.17147449 0.0044188257 1 0 0 0
