# .PCD v0.7 - Point Cloud Data file format
VERSION 0.7
FIELDS x y z normal_x normal_y normal_z curvature
SIZE 4 4 4 4 4 4 4
TYPE F F F F F F F
COUNT 1 1 1 1 1 1 1
WIDTH 736
HEIGHT 1
VIEWPOINT 0 0 0 1 0 0 0
POINTS 736
DATA ascii
-0.0096923923 0.015778705 -0.038107608 0.29028711 0 0.95693952 0
-0.0082941102 0.015476797 -0.03853178 0.29028714 0 0.95693964 0
-0.0062733595 0.015878387 -0.038852438 0.097967982 0 0.99518961 0
-0.0058774212 0.015135009 -0.038891416 0.097967982 0 0.99518961 0
0.0053322706 0.015214961 -0.038945083 -0.097967982 0 0.99518961 0
0.007249373 0.015771382 -0.038756356 -0.097967982 0 0.99518961 0
0.0093321586 0.015081219 -0.038216662 -0.2904053 0 0.95690376 0
-0.02789557 0.016639248 -0.038019121 -0.63437599 0 -0.77302468 0
-0.026880385 0.016720923 -0.038852226 -0.63437599 0 -0.77302468 0
-0.0094671985 0.016605381 -0.038175918 0.29028714 0 0.95693964 0
-0.0081647877 0.016340466 -0.038571008 0.29028714 0 0.95693964 0
-0.0075071175 0.016951889 -0.038715743 0.19506736 0 0.98078984 0
-0.0064189564 0.016555078 -0.038838107 0.097967982 0 0.99518961 0
-0.0054405467 0.016400721 -0.038934421 0.097967982 0 0.99518961 0
-0.0048981528 0.016487746 -0.038987815 0.097967982 0 0.99518961 0
0.0065207412 0.016594362 -0.03882809 -0.097967982 0 0.99518961 0
0.0072135283 0.016375199 -0.038759887 -0.097967982 0 0.99518961 0
0.026911102 0.016559578 -0.038827017 0.63437599 0 -0.77302468 0
0.027613699 0.016713757 -0.038250431 0.63437599 0 -0.77302468 0
-0.027058788 0.017685652 -0.038705818 -0.63437599 0 -0.77302468 0
-0.0098397704 0.017923959 -0.0380629 0.29028714 0 0.95693964 0
-0.0084629329 0.017920829 -0.038480561 0.29028714 0 0.95693964 0
-0.0052235117 0.017451484 -0.038955785 0.097967982 0 0.99518961 0
-0.0049587819 0.017093848 -0.038981847 0.097967982 0 0.99518961 0
0.0064022685 0.017858863 -0.03883975 -0.097967982 0 0.99518961 0
0.0099152979 0.017341122 -0.038039692 -0.2904053 0 0.95690376 0
0.026766689 0.017422326 -0.038945526 0.63437599 0 -0.77302468 0
0.027661024 0.017084051 -0.038211603 0.63437599 0 -0.77302468 0
-0.027608473 0.018422529 -0.038254727 -0.63437599 0 -0.77302468 0
-0.0082189878 0.018128805 -0.038554564 0.29028714 0 0.95693964 0
-0.0073385397 0.018552808 -0.038747583 0.097967982 0 0.99518961 0
-0.0064131776 0.018190848 -0.038838677 0.097967982 0 0.99518961 0
-0.0053373692 0.018123288 -0.03894458 0.097967982 0 0.99518961 0
0.0057056989 0.018596223 -0.038908321 -0.097967982 0 0.99518961 0
0.0064862631 0.018625502 -0.03883148 -0.097967982 0 0.99518961 0
0.0077637932 0.018761935 -0.038681284 -0.19512792 0 0.9807778 0
0.0085669309 0.018403519 -0.0384489 -0.2904053 0 0.95690376 0
0.0098043988 0.018699493 -0.038073346 -0.2904053 0 0.95690376 0
-0.0277167 0.019560393 -0.038165912 -0.63437599 0 -0.77302468 0
-0.0085179601 0.019835901 -0.038463872 0.29028714 0 0.95693964 0
-0.0063080871 0.019064199 -0.038849019 0.097967982 0 0.99518961 0
0.0048475266 0.019819127 -0.0389928 -0.097967982 0 0.99518961 0
0.0057889153 0.019998262 -0.038900126 -0.097967982 0 0.99518961 0
0.0061624981 0.019914348 -0.03886335 -0.097967982 0 0.99518961 0
0.0070075337 0.019157054 -0.038780168 -0.097967982 0 0.99518961 0
0.0080048023 0.019892445 -0.038619496 -0.2904053 0 0.95690376 0
0.0097276662 0.019285869 -0.038096633 -0.2904053 0 0.95690376 0
-0.027322218 0.020497834 -0.03848964 -0.63437593 0 -0.77302468 0
-0.0093186907 0.020373745 -0.038220972 0.29028714 0 0.95693964 0
-0.0083680889 0.02052716 -0.038509332 0.29028714 0 0.95693964 0
-0.0062744473 0.020971393 -0.038852334 0.097967982 0 0.99518961 0
-0.0055152108 0.020290917 -0.038927071 0.097967982 0 0.99518961 0
-0.0048139393 0.020259542 -0.038996108 0.097967982 0 0.99518961 0
0.0048801862 0.020251349 -0.038989585 -0.097967982 0 0.99518961 0
0.0065080794 0.020488329 -0.038829334 -0.097967982 0 0.99518961 0
0.0079613384 0.020072496 -0.038632687 -0.2904053 0 0.95690376 0
0.0087362286 0.0204781 -0.038397521 -0.2904053 0 0.95690376 0
0.0095220618 0.020620953 -0.038159035 -0.2904053 0 0.95690376 0
0.02778957 0.020442445 -0.038106106 0.63437599 0 -0.77302468 0
-0.027698934 0.021586703 -0.038180489 -0.63437593 0 -0.77302468 0
-0.0096598733 0.021277312 -0.038117476 0.29028714 0 0.95693958 0
-0.0086888215 0.02113124 -0.038412042 0.29028714 0 0.95693964 0
-0.007773676 0.02107523 -0.038689647 0.29028714 0 0.95693964 0
-0.0063841185 0.021777259 -0.038841538 0.097967982 0 0.99518961 0
-0.0054043839 0.021833152 -0.038937986 0.097967982 0 0.99518961 0
0.0054642181 0.021712866 -0.038932092 -0.097967982 0 0.99518961 0
0.0065786154 0.021403169 -0.038822394 -0.097967982 0 0.99518961 0
0.0070855357 0.021273281 -0.038772486 -0.097967982 0 0.99518961 0
0.0083503127 0.021085203 -0.038514636 -0.2904053 0 0.95690376 0
0.027538693 0.02160967 -0.038311988 0.63437593 0 -0.77302468 0
-0.027536586 0.022379616 -0.03831372 -0.63437593 0 -0.77302468 0
-0.026994387 0.022111421 -0.038758673 -0.63437599 0 -0.77302468 0
-0.0090807471 0.022662494 -0.038293149 0.29028714 0 0.95693964 0
-0.0082476456 0.022691924 -0.038545869 0.29028714 0 0.95693964 0
-0.0074178297 0.02271644 -0.038728423 0.19506736 0 0.98078984 0
-0.0053421408 0.022614609 -0.03894411 0.097967982 0 0.99518961 0
0.0068550073 0.022124531 -0.038795181 -0.097967982 0 0.99518961 0
0.007480761 0.022735324 -0.038721994 -0.19512792 0 0.9807778 0
0.01002341 0.022878628 -0.038006879 -0.2904053 0 0.95690376 0
0.026846949 0.022745106 -0.038879663 0.63437599 0 -0.77302468 0
0.027595762 0.022345722 -0.038265154 0.63437599 0 -0.77302468 0
-0.027800648 0.02324792 -0.038097017 -0.63437599 0 -0.77302468 0
-0.026778759 0.023992533 -0.038935624 -0.63437599 0 -0.77302468 0
-0.0092677623 0.023337508 -0.038236417 0.29028714 0 0.95693964 0
-0.0074630193 0.023192324 -0.038716644 0.19506736 0 0.98078984 0
-0.0065124221 0.023425533 -0.038828906 0.097967982 0 0.99518961 0
-0.0059498097 0.023415528 -0.03888429 0.097967982 0 0.99518961 0
0.0063212202 0.023654737 -0.03884773 -0.097967982 0 0.99518961 0
0.0073849559 0.023504466 -0.038743012 -0.097967982 0 0.99518961 0
0.0083815679 0.023298556 -0.038505156 -0.2904053 0 0.95690376 0
0.0092790835 0.023063637 -0.03823277 -0.2904053 0 0.95690376 0
0.026937166 0.02311077 -0.038805626 0.63437599 0 -0.77302468 0
0.027665425 0.023628157 -0.038207985 0.63437599 0 -0.77302468 0
-0.027407655 0.024615506 -0.038419522 -0.63437599 0 -0.77302468 0
-0.026810862 0.024048299 -0.038909279 -0.63437599 0 -0.77302468 0
-0.0065916236 0.024550587 -0.038821109 0.097967982 0 0.99518961 0
-0.0055159722 0.024474557 -0.038926996 0.097967982 0 0.99518961 0
-0.0049178894 0.024398167 -0.038985875 0.097967982 0 0.99518961 0
0.0057130968 0.024263393 -0.038907595 -0.097967982 0 0.99518961 0
0.0066508781 0.024299286 -0.038815275 -0.097967982 0 0.99518961 0
0.0072872383 0.024585573 -0.038750738 -0.16281168 0 0.98665714 0
0.0085778991 0.024695449 -0.03844557 -0.2904053 0 0.9569037 0
0.009372348 0.024734702 -0.038204469 -0.2904053 0 0.95690376 0
0.027573898 0.024534255 -0.038283095 0.63437599 0 -0.77302468 0
-0.027794817 0.025473686 -0.038101807 -0.63437599 0 -0.77302468 0
-0.0093374904 0.025208116 -0.038215265 0.29028714 0 0.95693964 0
-0.0088523701 0.025367199 -0.038362429 0.29028714 0 0.95693964 0
-0.0071884324 0.025170203 -0.038762361 0.097967982 0 0.99518961 0
-0.0065970197 0.025553448 -0.038820576 0.097967982 0 0.99518961 0
-0.0052807257 0.025597313 -0.038950153 0.097967982 0 0.99518961 0
0.0049284091 0.025806375 -0.038984839 -0.097967982 0 0.99518961 0
0.0053301635 0.025373682 -0.038945287 -0.097967982 0 0.99518961 0
0.0061936998 0.025416622 -0.03886028 -0.097967982 0 0.99518961 0
0.0074817017 0.025554337 -0.03873349 -0.097967982 0 0.99518961 0
0.0082534906 0.025696104 -0.038544022 -0.2904053 0 0.95690376 0
0.0093322415 0.02557195 -0.038216639 -0.2904053 0 0.9569037 0
0.026837457 0.025811924 -0.038887452 0.63437599 0 -0.77302468 0
0.027606862 0.025548071 -0.038256045 0.63437593 0 -0.77302468 0
-0.0091668535 0.026442839 -0.038267031 0.29028714 0 0.95693964 0
-0.0085734753 0.026476614 -0.03844703 0.29028711 0 0.95693952 0
-0.006456608 0.026659008 -0.0388344 0.097967982 0 0.99518961 0
-0.0055858265 0.026512519 -0.038920119 0.097967982 0 0.99518961 0
0.0049832379 0.026180319 -0.038979441 -0.097967982 0 0.99518961 0
0.0068909531 0.026156969 -0.038791642 -0.097967982 0 0.99518961 0
0.0074034301 0.02656283 -0.03874119 -0.097967982 0 0.99518961 0
0.0089026177 0.026173325 -0.038347024 -0.2904053 0 0.95690376 0
0.009557453 0.026542505 -0.038148288 -0.2904053 0 0.9569037 0
0.027570087 0.026501624 -0.038286224 0.63437599 0 -0.77302468 0
-0.027327064 0.027312888 -0.038485661 -0.63437599 0 -0.77302468 0
-0.026942991 0.027469067 -0.038800847 -0.63437599 0 -0.77302468 0
-0.0094345789 0.027203277 -0.038185813 0.29028714 0 0.95693964 0
-0.0086361514 0.027565677 -0.038428016 0.29028714 0 0.95693964 0
-0.0077770739 0.027461449 -0.038688619 0.29028714 0 0.95693964 0
-0.0069843773 0.02740629 -0.038782448 0.097967982 0 0.99518961 0
0.0047743986 0.027606726 -0.039000001 -0.097967982 0 0.99518961 0
0.0051221577 0.027592834 -0.038965765 -0.097967982 0 0.99518961 0
0.0064842487 0.02762188 -0.038831681 -0.097967982 0 0.99518961 0
0.0089282533 0.027694771 -0.038339242 -0.2904053 0 0.95690376 0
0.0093677593 0.027788335 -0.038205858 -0.2904053 0 0.9569037 0
0.027784102 0.027537653 -0.038110595 0.63437599 0 -0.77302468 0
-0.027431604 0.028053744 -0.038399868 -0.63437599 0 -0.77302468 0
-0.026822474 0.028142992 -0.03889975 -0.63437599 0 -0.77302468 0
-0.0086271279 0.028222233 -0.038430758 0.29028714 0 0.95693964 0
-0.006355409 0.028491873 -0.038844362 0.097967982 0 0.99518961 0
-0.0053859525 0.028681338 -0.0389398 0.097967982 0 0.99518961 0
0.0052508274 0.028187124 -0.038953096 -0.097967982 0 0.99518961 0
0.0064788014 0.02852707 -0.038832217 -0.097967982 0 0.99518961 0
0.0085765766 0.028344244 -0.038445972 -0.2904053 0 0.95690376 0
0.009808233 0.028288649 -0.038072184 -0.2904053 0 0.95690376 0
0.026959077 0.028553519 -0.038787648 0.63437599 0 -0.77302468 0
0.027607784 0.028781328 -0.038255289 0.63437599 0 -0.77302468 0
-0.027437225 0.029363345 -0.038395256 -0.63437599 0 -0.77302468 0
-0.0089277141 0.02927107 -0.03833957 0.29028714 0 0.95693964 0
-0.0070993556 0.02918062 -0.038771126 0.097967982 0 0.99518961 0
0.0050613275 0.029138112 -0.038971756 -0.097967982 0 0.99518961 0
0.0061697457 0.029622162 -0.038862638 -0.097967982 0 0.99518961 0
0.0091835214 0.029031616 -0.038261775 -0.2904053 0 0.95690376 0
0.010042369 0.029060166 -0.038001128 -0.2904053 0 0.95690376 0
0.02670306 0.029792406 -0.038997747 0.63437599 0 -0.77302468 0
0.027348265 0.029365484 -0.038468264 0.63437599 0 -0.77302468 0
-0.027655033 0.030558128 -0.038216516 -0.63437599 0 -0.77302468 0
-0.0097292252 0.030862682 -0.038096435 0.29028714 0 0.95693964 0
-0.0084866555 0.030477002 -0.038473368 0.29028711 0 0.95693952 0
-0.0064561632 0.030132608 -0.038834441 0.097967982 0 0.99518961 0
-0.0048646941 0.030414157 -0.038991112 0.097967982 0 0.99518961 0
0.0048921569 0.030467743 -0.038988404 -0.097967982 0 0.99518961 0
0.0051689479 0.030265735 -0.038961157 -0.097967982 0 0.99518961 0
0.0065031648 0.030150723 -0.038829818 -0.097967982 0 0.99518961 0
0.0075063468 0.030596456 -0.038720429 -0.1628117 0 0.98665714 0
0.0089608831 0.030711377 -0.038329341 -0.2904053 0 0.95690376 0
0.0096834116 0.030506464 -0.038110062 -0.2904053 0 0.95690376 0
0.026784595 0.030406829 -0.038930833 0.63437599 0 -0.77302468 0
0.027690338 0.030097788 -0.038187545 0.63437599 0 -0.77302468 0
-0.009603953 0.031889711 -0.038134437 0.29028714 0 0.95693964 0
-0.0089518866 0.031235669 -0.038332243 0.29028714 0 0.95693964 0
-0.0079006776 0.031837478 -0.038651124 0.29028714 0 0.95693964 0
-0.0065517202 0.031628832 -0.038825035 0.097967982 0 0.99518961 0
-0.0057255239 0.031637482 -0.038906366 0.097967982 0 0.99518961 0
-0.0048109619 0.031244056 -0.038996398 0.097967982 0 0.99518961 0
0.0048441472 0.031495731 -0.038993131 -0.097967982 0 0.99518961 0
0.0067338408 0.031518538 -0.038807109 -0.097967982 0 0.99518961 0
0.0076223458 0.031242037 -0.038719643 -0.097967982 0 0.99518961 0
0.0081125386 0.031796001 -0.038586799 -0.2904053 0 0.95690376 0
0.0092744073 0.03139529 -0.038234193 -0.2904053 0 0.95690376 0
0.026796706 0.031659108 -0.038920894 0.63437599 0 -0.77302468 0
0.027307156 0.031267162 -0.038502 0.63437599 0 -0.77302468 0
-0.027395908 0.032356188 -0.038429163 -0.63437599 0 -0.77302468 0
-0.026931798 0.032527588 -0.038810033 -0.63437599 0 -0.77302468 0
-0.0094467783 0.03261967 -0.038182113 0.29028714 0 0.95693964 0
-0.0086801676 0.032639299 -0.038414665 0.29028711 0 0.95693952 0
-0.0076168748 0.032318205 -0.038720179 0.097967982 0 0.99518961 0
-0.0068075377 0.032502487 -0.038799852 0.097967982 0 0.99518961 0
-0.0050311028 0.03280966 -0.038974728 0.097967982 0 0.99518961 0
-0.004912124 0.03250201 -0.038986441 0.097967982 0 0.99518961 0
0.0076000369 0.032237161 -0.038721841 -0.097967982 0 0.99518961 0
0.0089304922 0.032797936 -0.038338564 -0.2904053 0 0.95690376 0
0.0094897114 0.032304954 -0.038168848 -0.2904053 0 0.95690376 0
0.027584109 0.032354612 -0.03827472 0.63437599 0 -0.77302468 0
-0.027342057 0.033324093 -0.038473357 -0.63437599 0 -0.77302462 0
-0.026957626 0.03396925 -0.03878884 -0.63437599 0 -0.77302468 0
-0.0095543843 0.03334143 -0.038149472 0.29028714 0 0.95693964 0
-0.0083717257 0.033399481 -0.038508233 0.29028714 0 0.95693964 0
-0.0072577121 0.033497889 -0.03875554 0.097967982 0 0.99518961 0
-0.0065180552 0.03317003 -0.038828351 0.097967982 0 0.99518961 0
0.0051977984 0.033112023 -0.038958322 -0.097967982 0 0.99518961 0
0.0061154021 0.033825025 -0.038867991 -0.097967982 0 0.99518961 0
0.0075480323 0.033805467 -0.038726959 -0.097967982 0 0.99518961 0
0.027222596 0.033725776 -0.038571395 0.63437599 0 -0.77302468 0
-0.0088060219 0.034458771 -0.038376484 0.29028714 0 0.95693964 0
-0.0054671401 0.034250505 -0.038931806 0.097967982 0 0.99518961 0
0.0048221289 0.034649689 -0.038995299 -0.097967982 0 0.99518961 0
0.0056090718 0.03442001 -0.038917832 -0.097967982 0 0.99518961 0
0.0065085609 0.034230761 -0.038829286 -0.097967982 0 0.99518961 0
0.007387605 0.034551617 -0.038723979 -0.1628117 0 0.98665714 0
0.0083571523 0.034441479 -0.038512561 -0.2904053 0 0.9569037 0
0.026853204 0.034205638 -0.038874529 0.63437599 0 -0.77302468 0
0.027706726 0.034328345 -0.038174096 0.63437599 0 -0.77302468 0
-0.027326846 0.035523489 -0.03848584 -0.63437599 0 -0.77302468 0
-0.0096016917 0.035453528 -0.038135119 0.29028714 0 0.95693964 0
-0.0087177176 0.035370007 -0.038403276 0.29028711 0 0.95693952 0
-0.0074727824 0.0355094 -0.038734365 0.097967982 0 0.99518961 0
-0.0065735462 0.035337098 -0.038822889 0.097967982 0 0.99518961 0
-0.0058423756 0.03531424 -0.038894866 0.097967982 0 0.99518961 0
-0.0049349954 0.035291854 -0.038984191 0.097967982 0 0.99518961 0
0.0053021004 0.035458669 -0.038948052 -0.097967982 0 0.99518961 0
0.0064779571 0.035396788 -0.038832296 -0.097967982 0 0.99518961 0
0.0074793538 0.035503753 -0.038733721 -0.097967982 0 0.99518961 0
0.0081554232 0.035497651 -0.038573787 -0.2904053 0 0.95690376 0
0.0093601868 0.035651296 -0.038208157 -0.2904053 0 0.95690376 0
0.027446106 0.035157219 -0.038387969 0.63437599 0 -0.77302468 0
-0.0088229664 0.036789499 -0.038371347 0.29028714 0 0.95693964 0
-0.0079427548 0.036464803 -0.038638361 0.29028714 0 0.95693964 0
-0.0055379635 0.036463395 -0.038924836 0.097967982 0 0.99518961 0
-0.0048423354 0.03696334 -0.03899331 0.097967982 0 0.99518961 0
0.0055264304 0.036645055 -0.038925964 -0.097967982 0 0.99518961 0
0.0086547341 0.036612663 -0.038422249 -0.2904053 0 0.95690376 0
0.0090706218 0.036652338 -0.038296036 -0.2904053 0 0.95690376 0
0.026728462 0.036083248 -0.0389769 0.63437599 0 -0.77302468 0
-0.027850259 0.037686944 -0.038056303 -0.63437599 0 -0.77302468 0
-0.0088225165 0.037479833 -0.038371485 0.29028714 0 0.95693964 0
-0.0073433551 0.037324578 -0.038746044 0.14657709 0 0.98919928 0
-0.0067522088 0.037952624 -0.038805299 0.097967982 0 0.99518961 0
-0.005163664 0.037392564 -0.038961679 0.097967982 0 0.99518961 0
0.0064022825 0.037250828 -0.03883975 -0.097967982 0 0.99518961 0
0.0083100591 0.037753671 -0.038526855 -0.2904053 0 0.95690376 0
0.027670648 0.03742481 -0.038203698 0.63437599 0 -0.77302468 0
-0.0085217813 0.038753282 -0.03846271 0.29028714 0 0.95693964 0
-0.0078737708 0.038744751 -0.038659286 0.29028714 0 0.95693964 0
-0.0067844205 0.038481332 -0.038802132 0.097967982 0 0.99518961 0
-0.0055796239 0.03845188 -0.03892073 0.097967982 0 0.99518961 0
-0.0048460858 0.038596578 -0.038992945 0.097967982 0 0.99518961 0
0.0053589358 0.038315896 -0.038942456 -0.097967982 0 0.99518961 0
0.0063620992 0.038648628 -0.038843703 -0.097967982 0 0.99518961 0
0.0088214716 0.038865045 -0.038371649 -0.2904053 0 0.95690376 0
0.0092034545 0.038382526 -0.038255725 -0.2904053 0 0.95690376 0
0.02736171 0.038709857 -0.03845723 0.63437599 0 -0.77302468 0
-0.027247079 0.03930717 -0.038551301 -0.63437599 0 -0.77302468 0
-0.026892563 0.039527215 -0.038842231 -0.63437599 0 -0.77302468 0
-0.0098179001 0.039701521 -0.038069531 0.29028714 0 0.95693964 0
-0.0087832194 0.039693564 -0.038383406 0.29028714 0 0.95693964 0
-0.007540354 0.039618269 -0.038727716 0.097967982 0 0.99518961 0
-0.0064485501 0.039494962 -0.03883519 0.097967982 0 0.99518961 0
-0.0058728168 0.039207142 -0.038891871 0.097967982 0 0.99518961 0
-0.0048562563 0.039965011 -0.038991939 0.097967982 0 0.99518961 0
0.0068858666 0.039786309 -0.038792145 -0.097967982 0 0.99518961 0
0.0098429332 0.039880067 -0.038061652 -0.2904053 0 0.95690376 0
0.027415503 0.039543018 -0.038413085 0.63437599 0 -0.77302468 0
-0.027193528 0.040287942 -0.038595244 -0.63437599 0 -0.77302468 0
-0.026980774 0.040668767 -0.038769841 -0.63437599 0 -0.77302468 0
-0.0084913056 0.040529184 -0.038471956 0.29028714 0 0.95693964 0
-0.0076809279 0.040761165 -0.038707174 0.19506736 0 0.98078984 0
-0.0067625539 0.040469486 -0.038804282 0.097967975 0 0.99518955 0
-0.0053417715 0.040428512 -0.038944148 0.097967982 0 0.99518961 0
0.0050796093 0.040709157 -0.038969956 -0.097967982 0 0.99518961 0
0.0063722772 0.040237896 -0.038842704 -0.097967982 0 0.99518961 0
0.0076249801 0.040536266 -0.038690899 -0.19512792 0 0.9807778 0
0.0082767429 0.040400226 -0.038536966 -0.2904053 0 0.95690376 0
0.0094299512 0.040682085 -0.038186982 -0.2904053 0 0.95690376 0
0.026859615 0.040262349 -0.038869265 0.63437599 0 -0.77302468 0
0.027139122 0.040776853 -0.038639892 0.63437599 0 -0.77302468 0
-0.027373742 0.041415557 -0.038447358 -0.63437599 0 -0.77302468 0
-0.0086419499 0.041582156 -0.038426258 0.29028711 0 0.95693952 0
-0.0077935518 0.041797496 -0.038683619 0.29028714 0 0.95693964 0
-0.0065743937 0.041658759 -0.038822804 0.097967982 0 0.99518961 0
-0.0053270245 0.041767269 -0.0389456 0.097967982 0 0.99518961 0
-0.0049434416 0.041189466 -0.038983356 0.097967982 0 0.99518961 0
0.005091236 0.041364998 -0.038968809 -0.097967982 0 0.99518961 0
0.007695796 0.041553162 -0.038712412 -0.097967982 0 0.99518961 0
0.0083708158 0.041373223 -0.038508415 -0.2904053 0 0.95690376 0
0.027278019 0.041797951 -0.038525909 0.63437599 0 -0.77302468 0
-0.0094476268 0.042519923 -0.038181856 0.29028714 0 0.95693964 0
-0.008732588 0.042683948 -0.038398765 0.29028714 0 0.95693964 0
-0.0071320413 0.042540733 -0.038767911 0.097967982 0 0.99518961 0
-0.0064871921 0.042411264 -0.038831387 0.097967982 0 0.99518961 0
0.0054234155 0.042527895 -0.038936108 -0.097967982 0 0.99518961 0
0.006718887 0.042430513 -0.03880858 -0.097967982 0 0.99518961 0
0.0072381385 0.042830817 -0.038757466 -0.097967982 0 0.99518961 0
0.0089937868 0.042953059 -0.038319353 -0.2904053 0 0.95690376 0
0.0095195416 0.042257845 -0.038159795 -0.2904053 0 0.95690376 0
0.026852394 0.042878065 -0.038875196 0.63437599 0 -0.77302468 0
0.027651126 0.042518757 -0.03821972 0.63437599 0 -0.77302468 0
-0.027336266 0.043470345 -0.038478106 -0.63437599 0 -0.77302468 0
-0.026720973 0.043776397 -0.038983043 -0.63437599 0 -0.77302468 0
-0.0086304219 0.043689467 -0.038429756 0.29028714 0 0.95693964 0
-0.007280875 0.043612652 -0.03875326 0.097967982 0 0.99518961 0
-0.0053645754 0.043291189 -0.038941905 0.097967982 0 0.99518961 0
0.0068598734 0.04357592 -0.038794704 -0.097967982 0 0.99518961 0
0.0077234977 0.043584645 -0.038704868 -0.2904053 0 0.95690376 0
0.0083982842 0.043399006 -0.038500082 -0.2904053 0 0.9569037 0
0.0094987862 0.04334721 -0.038166095 -0.2904053 0 0.95690376 0
0.026909761 0.043235648 -0.03882812 0.63437599 0 -0.77302468 0
-0.0095054526 0.044212684 -0.038164318 0.29028714 0 0.95693964 0
-0.0070019728 0.044803172 -0.038780712 0.097967982 0 0.99518961 0
-0.006684117 0.044542413 -0.038812008 0.097967982 0 0.99518961 0
-0.0055497889 0.04442725 -0.038923666 0.097967982 0 0.99518961 0
0.0050110994 0.044320967 -0.038976695 -0.097967982 0 0.99518961 0
0.0064843395 0.04453107 -0.03883167 -0.097967975 0 0.99518955 0
0.007611589 0.044306472 -0.038707122 -0.19512792 0 0.9807778 0
0.0085638398 0.044370726 -0.038449839 -0.2904053 0 0.9569037 0
0.0094787981 0.04464874 -0.038172163 -0.2904053 0 0.95690376 0
0.026969239 0.04411133 -0.038779307 0.63437599 0 -0.77302468 0
-0.027685329 0.045385376 -0.038191654 -0.63437599 0 -0.77302468 0
-0.0092349695 0.045902904 -0.038246367 0.29028714 0 0.95693964 0
-0.0088158622 0.045600742 -0.0383735 0.29028714 0 0.95693964 0
-0.0074881651 0.045370728 -0.038722757 0.16277124 0 0.98666376 0
-0.006289918 0.045097392 -0.03885081 0.097967982 0 0.99518961 0
-0.0052436031 0.045809142 -0.038953811 0.097967982 0 0.99518961 0
0.0058657378 0.045200326 -0.038892567 -0.097967982 0 0.99518961 0
0.0065183528 0.045674499 -0.038828325 -0.097967982 0 0.99518961 0
0.0078324862 0.045022275 -0.038671792 -0.2904053 0 0.95690376 0
0.0084730498 0.045434844 -0.038477391 -0.2904053 0 0.95690376 0
0.0099497549 0.045334663 -0.038029231 -0.2904053 0 0.95690376 0
0.027588708 0.045618281 -0.038270947 0.63437593 0 -0.77302468 0
-0.027432324 0.046479214 -0.038399279 -0.63437593 0 -0.77302468 0
-0.009463164 0.046564441 -0.038177148 0.29028714 0 0.95693964 0
-0.0084571606 0.046698198 -0.038482312 0.29028711 0 0.95693952 0
-0.0049198731 0.046737697 -0.038985677 0.097967982 0 0.99518961 0
0.0074805003 0.046534695 -0.038733609 -0.097967982 0 0.99518961 0
0.0082853837 0.046169259 -0.038534343 -0.2904053 0 0.95690376 0
0.026956359 0.04658369 -0.038789876 0.63437599 0 -0.77302468 0
0.02734011 0.046625875 -0.038474955 0.63437599 0 -0.77302468 0
-0.027521415 0.047597684 -0.03832617 -0.63437599 0 -0.77302468 0
-0.026751351 0.047460761 -0.038958114 -0.63437599 0 -0.77302468 0
-0.008415862 0.047630209 -0.03849484 0.29028711 0 0.95693952 0
-0.0076186806 0.047377571 -0.038702402 0.16277127 0 0.98666388 0
-0.006465524 0.047305461 -0.038833525 0.097967982 0 0.99518961 0
-0.0051726867 0.047200058 -0.038960792 0.097967982 0 0.99518961 0
0.0072610024 0.047666837 -0.038755216 -0.097967982 0 0.99518961 0
0.0086938757 0.047605157 -0.038410373 -0.2904053 0 0.95690376 0
0.0096311122 0.047253694 -0.038125932 -0.2904053 0 0.95690376 0
0.010003532 0.047248479 -0.038012911 -0.2904053 0 0.95690376 0
0.027409077 0.047329318 -0.038418356 0.63437593 0 -0.77302468 0
-0.027108347 0.048905883 -0.038665149 -0.63437599 0 -0.77302468 0
-0.026980033 0.048362605 -0.038770448 -0.63437599 0 -0.77302468 0
-0.010023804 0.048555017 -0.038007073 0.29028714 0 0.95693964 0
-0.0077012656 0.048927821 -0.038709957 0.19506736 0 0.98078984 0
-0.0049702348 0.048165713 -0.038980722 0.097967982 0 0.99518961 0
0.0054693832 0.048756666 -0.038931586 -0.097967982 0 0.99518961 0
0.0063251201 0.048532084 -0.038847346 -0.097967982 0 0.99518961 0
0.0075103049 0.048109315 -0.038730673 -0.097967982 0 0.99518961 0
0.0086481944 0.048412494 -0.038424239 -0.2904053 0 0.95690376 0
0.0092252465 0.048416771 -0.038249109 -0.2904053 0 0.95690376 0
0.027637621 0.048390869 -0.038230807 0.63437593 0 -0.77302468 0
-0.027059898 0.049443409 -0.038704906 -0.63437599 0 -0.77302462 0
-0.0063674594 0.04928517 -0.038843174 0.097967982 0 0.99518961 0
-0.0053509842 0.049356353 -0.038943239 0.097967982 0 0.99518961 0
0.0052177771 0.049775355 -0.038956352 -0.097967982 0 0.99518961 0
0.0062840167 0.049229994 -0.038851392 -0.097967982 0 0.99518961 0
0.0076798061 0.049716111 -0.038713973 -0.19512792 0 0.9807778 0
0.0080790054 0.049709652 -0.038596977 -0.2904053 0 0.95690376 0
0.0097955875 0.049678043 -0.038076021 -0.2904053 0 0.95690376 0
-0.02718574 0.050680842 -0.038601637 -0.63437599 0 -0.77302462 0
-0.02690509 0.05023833 -0.038831949 -0.63437599 0 -0.77302462 0
-0.00827765 0.050637294 -0.038536768 0.29028711 0 0.95693952 0
-0.0073552043 0.050498568 -0.03874594 0.097967982 0 0.99518961 0
-0.0065348092 0.050467622 -0.0388267 0.097967982 0 0.99518961 0
-0.005959502 0.05013584 -0.038883336 0.097967982 0 0.99518961 0
0.0056785112 0.050288044 -0.038910996 -0.097967982 0 0.99518961 0
0.0066346251 0.050762691 -0.038816877 -0.097967982 0 0.99518961 0
0.0080543859 0.050429948 -0.038604449 -0.2904053 0 0.95690376 0
0.0096772173 0.050633948 -0.038111944 -0.2904053 0 0.9569037 0
0.027417885 0.050849907 -0.038411129 0.63437599 0 -0.77302468 0
-0.027550131 0.051557671 -0.038302604 -0.63437599 0 -0.77302462 0
-0.0092121949 0.051933512 -0.038253274 0.29028714 0 0.95693964 0
-0.0086980453 0.051690061 -0.038409241 0.29028714 0 0.95693964 0
-0.0074441982 0.051617406 -0.038728416 0.19506736 0 0.98078984 0
-0.0067226444 0.051095452 -0.038808212 0.097967982 0 0.99518961 0
-0.0059748576 0.051665392 -0.038881823 0.097967982 0 0.99518961 0
0.0049331621 0.051869683 -0.038984369 -0.097967982 0 0.99518961 0
0.0072362088 0.051352188 -0.038757656 -0.097967982 0 0.99518961 0
0.0081983255 0.051836811 -0.038560767 -0.2904053 0 0.95690376 0
0.0094693676 0.051468063 -0.038175024 -0.2904053 0 0.95690376 0
-0.027414976 0.052655984 -0.038413517 -0.63437599 0 -0.77302462 0
-0.026888832 0.052734889 -0.038845293 -0.63437599 0 -0.77302462 0
-0.0089904247 0.052454911 -0.038320549 0.29028714 0 0.95693964 0
-0.0075882636 0.052458324 -0.038722999 0.097967982 0 0.99518961 0
-0.0065508918 0.052582972 -0.038825117 0.097967982 0 0.99518961 0
0.0059031495 0.052819915 -0.038888883 -0.097967982 0 0.99518961 0
0.00632523 0.052994981 -0.038847335 -0.097967982 0 0.99518961 0
0.0071653626 0.05245382 -0.03876463 -0.097967982 0 0.99518961 0
0.0080537274 0.052435137 -0.038604651 -0.2904053 0 0.95690376 0
0.0094741248 0.05259994 -0.038173579 -0.2904053 0 0.95690376 0
0.027395647 0.052358616 -0.038429376 0.63437599 0 -0.77302468 0
-0.027764469 0.053290613 -0.038126707 -0.63437599 0 -0.77302462 0
-0.010014515 0.053341817 -0.038009893 0.29028714 0 0.95693964 0
-0.0099026971 0.053156234 -0.038043812 0.29028714 0 0.95693964 0
-0.0088052396 0.053206671 -0.038376726 0.29028714 0 0.95693964 0
-0.007027531 0.053872038 -0.038778197 0.097967982 0 0.99518961 0
-0.006883231 0.053562861 -0.038792402 0.097967982 0 0.99518961 0
-0.0054366938 0.053443264 -0.038934804 0.097967982 0 0.99518961 0
0.0055510015 0.053783935 -0.03892355 -0.097967982 0 0.99518961 0
0.0062473691 0.053245053 -0.038854998 -0.097967982 0 0.99518961 0
0.0084789321 0.053565212 -0.038475603 -0.2904053 0 0.95690376 0
0.026836995 0.053160481 -0.038887829 0.63437599 0 -0.77302468 0
0.027533162 0.053071003 -0.038316529 0.63437599 0 -0.77302468 0
-0.008590295 0.054423526 -0.038441926 0.29028714 0 0.95693964 0
-0.0073265047 0.054583717 -0.038748767 0.097967982 0 0.99518961 0
-0.0063211713 0.054654803 -0.03884773 0.097967982 0 0.99518961 0
-0.0051774448 0.054331649 -0.038960323 0.097967982 0 0.99518961 0
0.0054607759 0.054143246 -0.038932428 -0.097967982 0 0.99518961 0
0.0062318482 0.054076038 -0.038856525 -0.097967982 0 0.99518961 0
0.0084031299 0.05460475 -0.03849861 -0.2904053 0 0.95690376 0
0.027590077 0.054109 -0.038269818 0.63437599 0 -0.77302468 0
-0.027280314 0.055870607 -0.038524024 -0.63437599 0 -0.77302462 0
-0.026887415 0.055538766 -0.038846456 -0.63437599 0 -0.77302462 0
-0.0097323619 0.055465184 -0.038095482 0.29028714 0 0.95693964 0
-0.0082871197 0.055459708 -0.038533896 0.29028714 0 0.95693964 0
-0.0076380996 0.055351265 -0.038716085 0.19506736 0 0.98078984 0
-0.006230731 0.055342272 -0.038856637 0.097967982 0 0.99518961 0
-0.0051944484 0.055500288 -0.03895865 0.097967982 0 0.99518961 0
0.0067584626 0.055922557 -0.038804684 -0.097967982 0 0.99518961 0
0.008696612 0.055473927 -0.038409542 -0.2904053 0 0.9569037 0
0.0094455592 0.055493377 -0.038182247 -0.2904053 0 0.95690376 0
0.026786953 0.055728711 -0.0389289 0.63437599 0 -0.77302468 0
0.027543241 0.055645417 -0.038308252 0.63437593 0 -0.77302468 0
-0.027165212 0.056344427 -0.038618483 -0.63437599 0 -0.77302462 0
-0.02676758 0.056023818 -0.038944796 -0.63437599 0 -0.77302462 0
-0.0098013543 0.056406938 -0.038074557 0.29028714 0 0.95693964 0
-0.0081012482 0.056876872 -0.038590282 0.29028714 0 0.95693964 0
-0.0076763015 0.056389946 -0.038714331 0.097967982 0 0.99518961 0
-0.0066273734 0.056794688 -0.038817588 0.097967982 0 0.99518961 0
-0.0056681265 0.056210406 -0.038912017 0.097967982 0 0.99518961 0
-0.0047750515 0.056519929 -0.038999937 0.097967982 0 0.99518961 0
0.006841599 0.056574553 -0.038796499 -0.097967982 0 0.99518961 0
0.0073874136 0.056173544 -0.038742773 -0.097967982 0 0.99518961 0
0.0085302899 0.056525718 -0.038460016 -0.2904053 0 0.9569037 0
0.010003614 0.056184418 -0.038012888 -0.2904053 0 0.95690376 0
0.026760789 0.056182336 -0.038950369 0.63437599 0 -0.77302468 0
0.027441226 0.056498446 -0.038391974 0.63437599 0 -0.77302468 0
-0.027544282 0.057287976 -0.038307402 -0.63437599 0 -0.77302462 0
-0.0080347536 0.057687212 -0.038610451 0.29028714 0 0.95693964 0
-0.0078367693 0.057689324 -0.03867051 0.29028714 0 0.95693964 0
-0.0065275077 0.057446092 -0.038827419 0.097967982 0 0.99518961 0
-0.0058712191 0.057701807 -0.038892027 0.097967982 0 0.99518961 0
0.0054022591 0.057452399 -0.038938191 -0.097967982 0 0.99518961 0
0.0064610168 0.05780077 -0.038833968 -0.097967982 0 0.99518961 0
0.0073490264 0.057724208 -0.038746551 -0.097967982 0 0.99518961 0
0.0095038069 0.057317153 -0.038164571 -0.2904053 0 0.9569037 0
0.027482884 0.057660669 -0.038357783 0.63437593 0 -0.77302468 0
-0.027513593 0.05833146 -0.038332585 -0.63437599 0 -0.77302462 0
-0.0096331788 0.058466461 -0.038125571 0.29028711 0 0.95693952 0
-0.008078997 0.058120832 -0.038597029 0.29028714 0 0.95693964 0
-0.0076744976 0.058394246 -0.038702846 0.19506736 0 0.98078984 0
-0.0052941209 0.058634371 -0.038948838 0.097967982 0 0.99518961 0
0.0053824782 0.058644548 -0.038940139 -0.097967982 0 0.99518961 0
0.0062386785 0.058437794 -0.038855851 -0.097967982 0 0.99518961 0
0.0084207291 0.058666438 -0.038493268 -0.2904053 0 0.95690376 0
0.0096029453 0.058879822 -0.038134485 -0.2904053 0 0.95690376 0
0.026891213 0.058811735 -0.038843337 0.63437599 0 -0.77302468 0
0.027602578 0.058420192 -0.038259562 0.63437593 0 -0.77302468 0
-0.027795805 0.059475392 -0.038100991 -0.63437599 0 -0.77302462 0
-0.026787592 0.059043474 -0.038928375 -0.63437599 0 -0.77302462 0
-0.0077110804 0.05963565 -0.038695257 0.16277124 0 0.98666376 0
-0.0063465466 0.059652332 -0.038845234 0.097967982 0 0.99518961 0
-0.005369002 0.059848115 -0.038941465 0.097967982 0 0.99518961 0
0.004911866 0.059605375 -0.038986467 -0.097967982 0 0.99518961 0
0.0055411151 0.059101466 -0.038924523 -0.097967982 0 0.99518961 0
0.0061435909 0.059280675 -0.038865212 -0.097967982 0 0.99518961 0
0.0074394383 0.059597284 -0.038719907 -0.16281168 0 0.98665714 0
0.0092880391 0.059253141 -0.038230054 -0.2904053 0 0.95690376 0
0.026927156 0.059139155 -0.038813844 0.63437599 0 -0.77302468 0
-0.027708462 0.060315698 -0.03817267 -0.63437599 0 -0.77302462 0
-0.010008915 0.060414407 -0.038011592 0.29028714 0 0.95693964 0
-0.0092886863 0.060648188 -0.038230073 0.29028714 0 0.95693964 0
-0.0082205161 0.060234956 -0.038554098 0.29028714 0 0.95693964 0
-0.0077171531 0.060508016 -0.038694814 0.16277127 0 0.98666388 0
-0.0064998074 0.060165815 -0.038830146 0.097967982 0 0.99518961 0
-0.0055126837 0.060558945 -0.038927324 0.097967982 0 0.99518961 0
0.0049330345 0.060042325 -0.038984384 -0.097967982 0 0.99518961 0
0.0054398663 0.060334858 -0.038934492 -0.097967982 0 0.99518961 0
0.0065803831 0.060554791 -0.038822215 -0.097967982 0 0.99518961 0
0.0072798282 0.060323741 -0.038753361 -0.097967982 0 0.99518961 0
0.0088241417 0.060842484 -0.03837084 -0.2904053 0 0.95690376 0
0.0094174417 0.060303267 -0.038190782 -0.2904053 0 0.9569037 0
0.027424917 0.060480252 -0.038405359 0.63437593 0 -0.77302468 0
-0.027170133 0.061498001 -0.038614444 -0.63437599 0 -0.77302462 0
-0.01001335 0.061602563 -0.038010243 0.29028714 0 0.95693964 0
-0.0091842711 0.06174532 -0.038261749 0.29028714 0 0.95693964 0
-0.0062830374 0.061189562 -0.038851485 0.097967982 0 0.99518961 0
-0.0052259169 0.061789755 -0.038955551 0.097967982 0 0.99518961 0
0.0055136811 0.061294001 -0.038927224 -0.097967982 0 0.99518961 0
0.0060946941 0.061241485 -0.038870029 -0.097967982 0 0.99518961 0
0.0074588391 0.061945889 -0.03873574 -0.097967982 0 0.99518961 0
0.0097260838 0.061730016 -0.038097113 -0.2904053 0 0.95690376 0
0.026954949 0.061122481 -0.038791031 0.63437599 0 -0.77302468 0
0.027723338 0.061181433 -0.038160466 0.63437599 0 -0.77302468 0
-0.027666492 0.062469721 -0.038207114 -0.63437599 0 -0.77302468 0
-0.0083395448 0.062659428 -0.038517993 0.29028714 0 0.95693964 0
-0.0071297884 0.062310133 -0.038768131 0.097967982 0 0.99518961 0
-0.0067757908 0.062711447 -0.038802981 0.097967982 0 0.99518961 0
-0.0055723786 0.062996149 -0.038921446 0.097967982 0 0.99518961 0
0.0049951281 0.062520668 -0.038978271 -0.097967982 0 0.99518961 0
0.006460255 0.062526725 -0.038834039 -0.097967982 0 0.99518961 0
0.007517145 0.062627047 -0.03871794 -0.19512792 0 0.9807778 0
0.0087022902 0.062669888 -0.038407817 -0.2904053 0 0.95690376 0
0.0091201691 0.062310722 -0.038280997 -0.2904053 0 0.9569037 0
0.026909836 0.062650926 -0.038828053 0.63437599 0 -0.77302468 0
0.027838787 0.062452774 -0.03806572 0.63437593 0 -0.77302468 0
-0.027763544 0.063892789 -0.038127467 -0.63437599 0 -0.77302468 0
-0.026874134 0.06387534 -0.038857356 -0.63437599 0 -0.77302468 0
-0.0093210191 0.06302388 -0.038220264 0.29028714 0 0.95693964 0
-0.008513947 0.06316825 -0.038465086 0.29028714 0 0.95693964 0
-0.0062280307 0.063514523 -0.038856901 0.097967982 0 0.99518961 0
-0.0051518441 0.063849159 -0.038962841 0.097967982 0 0.99518961 0
0.0050089713 0.063362569 -0.038976908 -0.097967982 0 0.99518961 0
0.0065711346 0.063581869 -0.038823128 -0.097967982 0 0.99518961 0
0.0074301213 0.063405737 -0.038738567 -0.097967982 0 0.99518961 0
0.0097348383 0.063683219 -0.038094457 -0.2904053 0 0.95690376 0
0.027558329 0.063957997 -0.038295876 0.63437599 0 -0.77302468 0
-0.027136551 0.064477243 -0.038642004 -0.63437599 0 -0.77302468 0
-0.0098892711 0.064930134 -0.038047884 0.29028714 0 0.95693964 0
-0.008379316 0.06459105 -0.038505927 0.29028714 0 0.95693964 0
-0.0070773321 0.064869449 -0.038773295 0.097967982 0 0.99518961 0
-0.0064896527 0.064771861 -0.038831148 0.097967982 0 0.99518961 0
-0.0056571718 0.064333305 -0.038913094 0.097967982 0 0.99518961 0
0.0054274108 0.064534217 -0.038935713 -0.097967982 0 0.99518961 0
0.0062293219 0.06465701 -0.038856775 -0.097967982 0 0.99518961 0
0.0074970359 0.06449002 -0.038731977 -0.097967982 0 0.99518961 0
0.0089592375 0.06421417 -0.038329843 -0.2904053 0 0.95690376 0
0.0099060759 0.064832166 -0.038042489 -0.2904053 0 0.95690376 0
0.027436551 0.064611688 -0.038395815 0.63437599 0 -0.77302468 0
-0.027217289 0.065509267 -0.03857575 -0.63437593 0 -0.77302468 0
-0.02698103 0.065385051 -0.038769629 -0.63437599 0 -0.77302468 0
-0.0093993312 0.065339752 -0.038196508 0.29028714 0 0.95693964 0
-0.0086963549 0.065590382 -0.038409755 0.29028714 0 0.95693964 0
-0.0070037348 0.065958023 -0.03878054 0.097967982 0 0.99518961 0
-0.006431377 0.065042429 -0.038836882 0.097967982 0 0.99518961 0
0.0048336741 0.065882735 -0.038994163 -0.097967982 0 0.99518961 0
0.0073961755 0.065546893 -0.038736004 -0.1466074 0 0.98919481 0
0.0088865226 0.065943308 -0.038351908 -0.2904053 0 0.95690376 0
0.0097737536 0.065357573 -0.038082648 -0.2904053 0 0.9569037 0
0.026826644 0.065730706 -0.03889633 0.63437599 0 -0.77302468 0
0.02742435 0.065688759 -0.038405821 0.63437593 0 -0.77302468 0
-0.027506072 0.066846259 -0.038338758 -0.63437599 0 -0.77302468 0
-0.0088018402 0.066932723 -0.038377754 0.29028714 0 0.95693964 0
-0.0063994578 0.066758588 -0.038840026 0.097967982 0 0.99518961 0
-0.0054702302 0.066601709 -0.038931504 0.097967982 0 0.99518961 0
-0.0047759949 0.06614618 -0.038999844 0.097967982 0 0.99518961 0
0.0064864703 0.066100121 -0.038831461 -0.097967982 0 0.99518961 0
0.007441856 0.066224836 -0.038721755 -0.19512792 0 0.9807778 0
0.0085393395 0.066161685 -0.038457274 -0.2904053 0 0.95690376 0
0.026830528 0.066690125 -0.038893137 0.63437599 0 -0.77302468 0
0.027822362 0.066762686 -0.038079198 0.63437599 0 -0.77302468 0
-0.027820075 0.067329057 -0.038081072 -0.63437599 0 -0.77302468 0
-0.009560884 0.067256734 -0.038147502 0.29028714 0 0.95693964 0
-0.0081789875 0.067388713 -0.038566697 0.29028711 0 0.95693952 0
-0.0063968818 0.067410998 -0.038840279 0.097967982 0 0.99518961 0
-0.0055580009 0.067442417 -0.038922861 0.097967982 0 0.99518961 0
0.0051930961 0.067875132 -0.03895878 -0.097967982 0 0.99518961 0
0.0083684698 0.067387179 -0.038509127 -0.2904053 0 0.95690376 0
0.010028834 0.067745574 -0.038005233 -0.2904053 0 0.95690376 0
0.027838824 0.067405097 -0.038065691 0.63437593 0 -0.77302468 0
-0.027466327 0.068313301 -0.038371377 -0.63437593 0 -0.77302468 0
-0.026986126 0.068878308 -0.038765449 -0.63437599 0 -0.77302468 0
-0.00939852 0.068644449 -0.038196754 0.29028714 0 0.95693964 0
-0.0083976761 0.068472624 -0.038500357 0.29028711 0 0.95693952 0
-0.0061742766 0.068341836 -0.038862191 0.097967982 0 0.99518961 0
-0.0053133229 0.068496823 -0.038946949 0.097967982 0 0.99518961 0
0.0057550324 0.068801157 -0.038903467 -0.097967982 0 0.99518961 0
0.0069494629 0.06845592 -0.038785882 -0.097967982 0 0.99518961 0
0.0079128118 0.068686835 -0.038647413 -0.2904053 0 0.9569037 0
0.0086873146 0.068749838 -0.038412362 -0.2904053 0 0.95690376 0
0.0095641762 0.068373233 -0.03814625 -0.2904053 0 0.9569037 0
0.026904296 0.068671361 -0.038832605 0.63437599 0 -0.77302468 0
0.027531877 0.068112224 -0.038317584 0.63437599 0 -0.77302468 0
-0.027586708 0.06985078 -0.038272586 -0.63437599 0 -0.77302468 0
-0.0086358599 0.069349766 -0.038428105 0.29028714 0 0.95693964 0
-0.0071170973 0.069796301 -0.038769379 0.097967982 0 0.99518961 0
-0.0068172021 0.069174632 -0.038798902 0.097967982 0 0.99518961 0
-0.0050603724 0.069967218 -0.038971849 0.097967982 0 0.99518961 0
-0.0047957324 0.069772825 -0.038997903 0.097967982 0 0.99518961 0
0.0049402849 0.069528945 -0.038983673 -0.097967982 0 0.99518961 0
0.00516207 0.069404691 -0.038961835 -0.097967982 0 0.99518961 0
0.0092178565 0.069691494 -0.038251355 -0.2904053 0 0.95690376 0
0.027585329 0.069373749 -0.038273718 0.63437599 0 -0.77302468 0
-0.02719436 0.070442408 -0.038594566 -0.63437599 0 -0.77302468 0
-0.026844427 0.070313267 -0.03888173 -0.63437599 0 -0.77302468 0
-0.0093584163 0.070663683 -0.038208917 0.29028714 0 0.95693964 0
-0.0086881844 0.070905328 -0.038412232 0.29028714 0 0.95693964 0
-0.0075184107 0.070933335 -0.038729873 0.097967982 0 0.99518961 0
-0.0058626556 0.070789739 -0.038892869 0.097967982 0 0.99518961 0
0.0054569263 0.070730776 -0.038932808 -0.097967982 0 0.99518961 0
0.0068047964 0.070452981 -0.038800124 -0.097967982 0 0.99518961 0
0.0074636042 0.070260219 -0.038733993 -0.16281168 0 0.98665714 0
0.0099134743 0.070645459 -0.038040243 -0.2904053 0 0.95690376 0
0.027384266 0.070491016 -0.038438722 0.63437593 0 -0.77302468 0
-0.027066689 0.071418956 -0.038699336 -0.63437599 0 -0.77302468 0
-0.0095910765 0.0712514 -0.038138341 0.29028714 0 0.95693964 0
-0.0084385071 0.071584411 -0.038487975 0.29028714 0 0.95693964 0
-0.0072513195 0.071367569 -0.038756169 0.097967982 0 0.99518961 0
-0.0062919557 0.071516193 -0.038850609 0.097967982 0 0.99518961 0
0.0047816252 0.071546175 -0.038999286 -0.097967982 0 0.99518961 0
0.0054698121 0.071191363 -0.038931541 -0.097967982 0 0.99518961 0
0.0077331648 0.071531281 -0.038701937 -0.2904053 0 0.95690376 0
0.0085114473 0.071656466 -0.038465738 -0.2904053 0 0.95690376 0
0.027344668 0.071420185 -0.038471214 0.63437593 0 -0.77302468 0
-0.027508896 0.072257966 -0.038336441 -0.63437599 0 -0.77302468 0
-0.0097316764 0.072573155 -0.03809569 0.29028714 0 0.95693964 0
-0.0082275635 0.072387315 -0.03855196 0.29028714 0 0.95693964 0
-0.0074205725 0.07273639 -0.03873907 0.19506736 0 0.98078984 0
-0.0065681133 0.072847068 -0.038823426 0.097967982 0 0.99518961 0
-0.0055394578 0.072721034 -0.03892469 0.097967982 0 0.99518961 0
0.0048267618 0.072024837 -0.038994841 -0.097967982 0 0.99518961 0
0.0057162675 0.072107285 -0.038907278 -0.097967982 0 0.99518961 0
0.0063718231 0.072416782 -0.038842745 -0.097967982 0 0.99518961 0
0.0084407562 0.072893791 -0.038487189 -0.2904053 0 0.95690376 0
0.0094110426 0.072533667 -0.038192723 -0.2904053 0 0.95690376 0
-0.027468152 0.07343135 -0.038369879 -0.63437599 0 -0.77302468 0
-0.026939493 0.07310345 -0.038803719 -0.63437599 0 -0.77302468 0
-0.0099155866 0.073565215 -0.038039904 0.29028714 0 0.95693964 0
-0.0084463665 0.073523939 -0.03848559 0.29028711 0 0.95693952 0
-0.0075669941 0.073479578 -0.038725093 0.097967982 0 0.99518961 0
-0.0065019014 0.073481545 -0.038829941 0.097967982 0 0.99518961 0
-0.0055976026 0.073461898 -0.038918957 0.097967982 0 0.99518961 0
0.0055737011 0.073357411 -0.038921311 -0.097967982 0 0.99518961 0
0.0071558845 0.073669471 -0.038765561 -0.097967982 0 0.99518961 0
0.0085898666 0.073662162 -0.038441937 -0.2904053 0 0.95690376 0
0.027397269 0.073508956 -0.038428042 0.63437593 0 -0.77302468 0
-0.0095129404 0.0745015 -0.038162045 0.29028714 0 0.95693964 0
-0.0089733154 0.074830264 -0.038325738 0.29028714 0 0.95693964 0
-0.0060793003 0.074801773 -0.038871542 0.097967982 0 0.99518961 0
-0.0053021256 0.074111104 -0.038948048 0.097967982 0 0.99518961 0
0.0062849876 0.074212134 -0.038851295 -0.097967982 0 0.99518961 0
0.0072580283 0.074399173 -0.038755506 -0.097967982 0 0.99518961 0
0.026819935 0.074279338 -0.038901832 0.63437593 0 -0.77302468 0
0.027817659 0.074481741 -0.038083058 0.63437599 0 -0.77302468 0
-0.027804196 0.075503349 -0.038094107 -0.63437599 0 -0.77302468 0
-0.026788564 0.075589001 -0.038927577 -0.63437599 0 -0.77302468 0
-0.0090692546 0.07557264 -0.038296636 0.29028714 0 0.95693964 0
-0.0085888878 0.075338721 -0.038442358 0.29028714 0 0.95693964 0
-0.007542118 0.075244173 -0.038727541 0.097967982 0 0.99518961 0
-0.0065574739 0.075437106 -0.038824473 0.097967982 0 0.99518961 0
-0.005443004 0.07554473 -0.038934182 0.097967982 0 0.99518961 0
-0.0047791689 0.075734779 -0.038999528 0.097967982 0 0.99518961 0
0.0050030793 0.075448424 -0.038977485 -0.097967982 0 0.99518961 0
0.0061102309 0.075424679 -0.038868498 -0.097967982 0 0.99518961 0
0.007232517 0.07595019 -0.038758017 -0.097967982 0 0.99518961 0
0.0080933804 0.075526707 -0.038592611 -0.2904053 0 0.95690376 0
0.0092947222 0.075266063 -0.038228028 -0.2904053 0 0.95690376 0
0.027686194 0.07523828 -0.038190942 0.63437599 0 -0.77302468 0
-0.0267355 0.076807432 -0.038971122 -0.63437599 0 -0.77302468 0
-0.0086163683 0.076943651 -0.038434017 0.29028714 0 0.95693964 0
-0.00763741 0.076274283 -0.03871816 0.097967982 0 0.99518961 0
-0.0053358595 0.076600194 -0.038944729 0.097967982 0 0.99518961 0
0.0064236429 0.076341189 -0.038837645 -0.097967982 0 0.99518961 0
0.0079912944 0.076232865 -0.038623597 -0.2904053 0 0.95690376 0
0.008147059 0.076887801 -0.038576324 -0.2904053 0 0.95690376 0
0.0094297994 0.076795563 -0.038187031 -0.2904053 0 0.95690376 0
0.026927641 0.076258861 -0.038813446 0.63437599 0 -0.77302468 0
-0.027543535 0.077782206 -0.038308017 -0.63437599 0 -0.77302468 0
-0.007422667 0.077597506 -0.038739301 0.097967982 0 0.99518961 0
-0.0064666695 0.077728964 -0.03883341 0.097967982 0 0.99518961 0
-0.0052244309 0.077580377 -0.038955696 0.097967982 0 0.99518961 0
0.0057055866 0.077377923 -0.038908333 -0.097967982 0 0.99518961 0
0.006885394 0.077186465 -0.038792189 -0.097967982 0 0.99518961 0
0.0070655397 0.077620126 -0.038774457 -0.097967982 0 0.99518961 0
0.0094304774 0.077540554 -0.038186826 -0.2904053 0 0.95690376 0
0.026964258 0.077386141 -0.038783394 0.63437599 0 -0.77302468 0
0.027500294 0.077266455 -0.0383435 0.63437599 0 -0.77302468 0
-0.0081130946 0.078980222 -0.038586687 0.29028714 0 0.95693964 0
-0.0075198025 0.078785539 -0.038729738 0.097967982 0 0.99518961 0
-0.0064280909 0.078718156 -0.038837209 0.097967982 0 0.99518961 0
-0.0048991828 0.078460395 -0.038987715 0.097967982 0 0.99518961 0
0.0047901543 0.078744069 -0.038998447 -0.097967982 0 0.99518961 0
0.005689247 0.078686014 -0.038909938 -0.097967982 0 0.99518961 0
0.0068005575 0.078222767 -0.038800541 -0.097967982 0 0.99518961 0
0.0071714516 0.07860025 -0.03876403 -0.097967982 0 0.99518961 0
0.0087467507 0.078047499 -0.038394324 -0.2904053 0 0.95690376 0
0.0099378899 0.078185476 -0.03803283 -0.2904053 0 0.95690376 0
0.010024279 0.078122936 -0.038006615 -0.2904053 0 0.95690376 0
0.027229084 0.07805372 -0.038566068 0.63437599 0 -0.77302468 0
-0.02733455 0.079618022 -0.038479518 -0.63437599 0 -0.77302462 0
-0.0080770096 0.079653651 -0.038597632 0.29028714 0 0.95693964 0
-0.0075748018 0.079136685 -0.038706068 0.16277127 0 0.98666388 0
-0.0053556506 0.079983212 -0.038942777 0.097967982 0 0.99518961 0
0.0047912197 0.079586312 -0.038998343 -0.097967982 0 0.99518961 0
0.0055812178 0.079635404 -0.038920574 -0.097967982 0 0.99518961 0
0.0064083254 0.079027198 -0.038839154 -0.097967982 0 0.99518961 0
0.0074701402 0.079539314 -0.038728476 -0.1466074 0 0.98919481 0
0.0092234816 0.079990208 -0.038249645 -0.2904053 0 0.95690376 0
0.026980463 0.079596676 -0.038770095 0.63437599 0 -0.77302468 0
0.027688103 0.079791613 -0.038189381 0.63437599 0 -0.77302468 0
-0.027378455 0.08047574 -0.038443487 -0.63437599 0 -0.77302468 0
-0.026757715 0.080482721 -0.038952891 -0.63437599 0 -0.77302468 0
-0.0092096375 0.080953643 -0.038254052 0.29028714 0 0.95693964 0
-0.0078706099 0.080697455 -0.038660243 0.29028714 0 0.95693964 0
-0.0066626049 0.080629952 -0.038814124 0.097967982 0 0.99518961 0
-0.0057138107 0.080281861 -0.038907524 0.097967982 0 0.99518961 0
-0.0049158223 0.080577828 -0.038986076 0.097967982 0 0.99518961 0
0.0050734575 0.080514759 -0.03897056 -0.097967982 0 0.99518961 0
0.0064434353 0.080234304 -0.038835697 -0.097967982 0 0.99518961 0
-0.027297754 0.081722356 -0.038509715 -0.63437599 0 -0.77302468 0
-0.0072715417 0.08145956 -0.03875418 0.097967982 0 0.99518961 0
-0.0065229759 0.081497058 -0.038827866 0.097967982 0 0.99518961 0
0.0056522042 0.081104055 -0.038913585 -0.097967982 0 0.99518961 0
0.0070634186 0.081350096 -0.038774665 -0.097967982 0 0.99518961 0
0.0080644023 0.081370771 -0.03860141 -0.2904053 0 0.95690376 0
0.0094272485 0.081928104 -0.038187806 -0.2904053 0 0.95690376 0
0.026957979 0.08189857 -0.038788546 0.63437599 0 -0.77302468 0
0.027530415 0.081589684 -0.038318783 0.63437599 0 -0.77302468 0
-0.0096626086 0.082224622 -0.038116641 0.29028714 0 0.95693964 0
-0.0084849996 0.082457885 -0.038473871 0.29028711 0 0.95693952 0
-0.0071299239 0.082495697 -0.038768113 0.097967982 0 0.99518961 0
-0.0066220001 0.082852602 -0.038818117 0.097967982 0 0.99518961 0
-0.0055228933 0.082691036 -0.038926318 0.097967982 0 0.99518961 0
-0.0049768048 0.082154311 -0.038980074 0.097967982 0 0.99518961 0
0.0054738745 0.082720533 -0.038931143 -0.097967982 0 0.99518961 0
0.0068451772 0.082999066 -0.038796149 -0.097967982 0 0.99518961 0
0.0086169988 0.082535543 -0.038433701 -0.2904053 0 0.95690376 0
0.0094565889 0.082516126 -0.038178902 -0.2904053 0 0.9569037 0
0.027629429 0.082173966 -0.038237527 0.63437599 0 -0.77302468 0
-0.027657814 0.083207615 -0.038214233 -0.63437599 0 -0.77302468 0
-0.0084349969 0.083521038 -0.038489036 0.29028714 0 0.95693964 0
-0.0070694308 0.083779469 -0.038774073 0.097967982 0 0.99518961 0
-0.0065761185 0.083697297 -0.038822636 0.097967982 0 0.99518961 0
-0.0051099649 0.083569914 -0.038966965 0.097967982 0 0.99518961 0
