# .PCD v0.7 - Point Cloud Data file format
VERSION 0.7
FIELDS x y z normal_x normal_y normal_z curvature
SIZE 4 4 4 4 4 4 4
TYPE F F F F F F F
COUNT 1 1 1 1 1 1 1
WIDTH 781
HEIGHT 1
VIEWPOINT 0 0 0 1 0 0 0
POINTS 781
DATA ascii
0.029522449 0.19296318 0.0094028814 -0.18401769 -0.45615539 0.87066633 0
0.030596102 0.19234173 0.0092571899 -0.14481939 -0.46372029 0.87406576 0
0.031491183 0.19285128 0.0094924495 0.22201107 0.37329993 0.90075427 0
0.032563534 0.19256885 0.0092783123 0.11052632 0.10449649 0.98836446 0
0.033379242 0.1924096 0.0092101395 0.22201107 0.37329993 0.90075427 0
-0.023026187 0.1935972 0.0096426932 -0.88187754 0 0.47147864 0
0.022955691 0.19363968 0.0097745517 0.88187748 0 0.47147861 0
0.023738241 0.19340487 0.0092452131 0.42386284 6.824179e-10 0.90572643 0
0.027398657 0.19332719 0.0091447178 -0.18401769 -0.45615539 0.87066633 0
0.029524393 0.19337027 0.0095151616 -0.16295086 -0.25542811 0.95299715 0
0.03143128 0.19395342 0.0090504494 0.22201107 0.37329993 0.90075427 0
-0.02328866 0.19445148 0.0090866536 -0.94448882 -0.16085748 0.28647119 0
0.025905091 0.19404821 0.0090148645 -0.087593816 0.43481806 0.8962481 0
0.028218336 0.19426212 0.0091371685 -0.087593816 0.43481806 0.8962481 0
0.029641636 0.19434816 0.0092324214 0.0099677164 0.42489088 0.90518975 0
-0.023432899 0.1958774 0.0094117764 -0.94448882 -0.16085748 0.28647119 0
0.023285873 0.1955374 0.0097365035 0.67982113 -0.14786303 0.71831727 0
0.024156628 0.19548063 0.0092447428 0.42079994 -0.12000033 0.89918143 0
-0.023661004 0.19713809 0.0093676094 -0.94448882 -0.16085748 0.28647119 0
-0.023747096 0.1981988 0.0096793678 -0.94448882 -0.16085748 0.28647119 0
0.023943873 0.19813153 0.0096980864 0.42079991 -0.12000033 0.89918143 0
-0.02400933 0.19905612 0.0092961881 -0.94448882 -0.16085748 0.28647119 0
-0.023993937 0.19933666 0.00950447 -0.94448882 -0.16085748 0.28647119 0
0.024505962 0.19979697 0.0094795078 0.75174415 -0.1112555 0.65000224 0
-0.024231574 0.20052241 0.0093867993 -0.94448882 -0.16085748 0.28647119 0
0.024280259 0.20055932 0.0098646656 0.42079991 -0.12000033 0.89918143 0
0.025023198 0.20099498 0.0091562122 0.95362085 -0.083409131 0.28922358 0
-0.024245258 0.20131563 0.0097870743 -0.94448882 -0.16085748 0.28647119 0
0.024547102 0.20106244 0.009806932 0.42079991 -0.12000033 0.89918143 0
-0.024581056 0.20274642 0.0094833802 -0.94448882 -0.16085748 0.28647119 0
-0.024713978 0.20355511 0.0094992239 -0.94448882 -0.16085748 0.28647119 0
0.024831899 0.20335357 0.0099794148 0.42079991 -0.12000033 0.89918143 0
0.025032999 0.20368344 0.009899226 0.95362085 -0.083409131 0.28922358 0
0.025200894 0.20423496 0.0095047019 0.95362085 -0.083409131 0.28922358 0
-0.025076818 0.20547554 0.0093812943 -0.94449168 -0.16085468 0.28646344 0
-0.024949793 0.20572451 0.0099398997 -0.94448882 -0.16085748 0.28647119 0
-0.025225 0.20697817 0.0097364867 -0.94449455 -0.16085188 0.28645566 0
0.025372498 0.20614442 0.009489568 0.95362085 -0.083409131 0.28922358 0
-0.025451131 0.20750718 0.0092879375 -0.94449455 -0.16085188 0.28645566 0
0.025376191 0.20747975 0.0098624751 0.95362085 -0.083409131 0.28922358 0
-0.025642533 0.20852776 0.0093010105 -0.9251284 -0.2557559 0.28058207 0
0.025522595 0.20829725 0.0096155209 0.95362085 -0.083409131 0.28922358 0
-0.025962524 0.20955266 0.0093378611 -0.8970511 -0.34825167 0.2720665 0
-0.026198795 0.21036305 0.0095961392 -0.8970511 -0.34825167 0.2720665 0
-0.026616275 0.21163981 0.0098539367 -0.8970511 -0.34825167 0.2720665 0
0.026638839 0.21165389 0.0097975619 0.8970511 -0.34825167 0.27206653 0
-0.027067656 0.21278808 0.0098354407 -0.89704204 -0.34823969 0.27211171 0
0.026997911 0.21216962 0.0092737852 0.8970511 -0.34825167 0.27206653 0
0.027201163 0.21273667 0.0093294596 0.8970511 -0.34825167 0.27206653 0
-0.027432453 0.21356601 0.0096284226 -0.89704657 -0.34824568 0.27208909 0
0.027619325 0.21367234 0.0091484059 0.8970511 -0.34825167 0.27206653 0
0.027945569 0.21486516 0.0095995162 0.89704204 -0.34823969 0.27211174 0
0.028540671 0.21643168 0.009642479 0.89704508 -0.34824365 0.27209666 0
-0.029106561 0.21791157 0.0096708732 -0.89704204 -0.34823969 0.27211171 0
-0.028933167 0.21760313 0.0098477537 -0.89704204 -0.34823969 0.27211171 0
0.02890834 0.21758904 0.0099115679 0.89704204 -0.34823969 0.27211174 0
0.02914081 0.21768646 0.0092698708 0.89704204 -0.34823969 0.27211174 0
0.029382646 0.21841016 0.0093988366 0.89704204 -0.34823969 0.27211174 0
-0.029681968 0.21931183 0.009566023 -0.89704198 -0.34823966 0.27211168 0
0.029589893 0.21923485 0.0097710323 0.89704204 -0.34823969 0.27211174 0
-0.030125735 0.22076949 0.0099685378 -0.89704204 -0.34823969 0.27211171 0
0.030249016 0.22099969 0.0098567484 0.89704204 -0.34823969 0.27211174 0
-0.030451838 0.22152129 0.0098556494 -0.89704204 -0.34823969 0.27211171 0
0.030420106 0.22123568 0.0095947366 0.89704204 -0.34823969 0.27211174 0
-0.031102313 0.22263364 0.0091348412 -0.89704204 -0.34823969 0.27211171 0
-0.030769633 0.22226559 0.0097605372 -0.89704204 -0.34823969 0.27211171 0
-0.031455308 0.2236262 0.0092414208 -0.89704204 -0.34823969 0.27211171 0
0.031454772 0.22362667 0.0092437901 0.89704204 -0.34823969 0.27211174 0
0.031667273 0.22428808 0.0093896873 0.89704204 -0.34823969 0.27211174 0
0.03213222 0.22547139 0.0093713198 0.89704204 -0.34823969 0.27211174 0
-0.032506842 0.22669742 0.00970536 -0.89704204 -0.34823969 0.27211171 0
-0.027475964 0.22685628 0.0093076127 0.37068319 0.92192417 -0.11247169 0
-0.026523378 0.22648153 0.0093751466 0.37068319 0.92192417 -0.11247169 0
-0.025416642 0.22673693 0.0092643127 -0.95692158 0 0.29034659 0
0.032435443 0.22636381 0.0095138196 0.89704204 -0.34823969 0.27211174 0
-0.030088011 0.22793688 0.0095565664 0.37067434 0.92193139 -0.11244159 0
-0.02965549 0.22775169 0.0094639547 0.37067434 0.92193139 -0.11244159 0
-0.028674847 0.22735672 0.0094585475 0.3706761 0.92192996 -0.1124476 0
-0.025420187 0.22715086 0.0092526302 -0.95692158 0 0.29034659 0
0.028272325 0.22717041 0.0092576696 -0.37068021 0.9219265 -0.11246165 0
0.029156184 0.22751088 0.0091356346 -0.37067437 0.92193139 -0.11244159 0
0.032927871 0.22766027 0.0095496317 0.89704204 -0.34823969 0.27211174 0
-0.031440724 0.22847646 0.0095214872 0.37067434 0.92193139 -0.11244159 0
-0.030544106 0.22811298 0.0094970996 0.37067434 0.92193139 -0.11244159 0
0.030747216 0.22823273 0.0098092277 -0.37067437 0.92193139 -0.11244159 0
0.031769093 0.22859839 0.0094387401 -0.37067437 0.92193139 -0.11244159 0
0.032343104 0.22884394 0.0095597552 -0.37067434 0.92193133 -0.11244158 0
0.033131637 0.228411 0.0098386677 0.89704204 -0.34823969 0.27211174 0
0.025301702 0.22932467 0.0096431263 0.95692158 0 0.29034659 0
0.033478178 0.22921665 0.0097273057 0.89704204 -0.34823969 0.27211174 0
-0.025338141 0.23048361 0.0095230406 -0.95692158 0 0.29034659 0
-0.025307888 0.2319824 0.0096227452 -0.95692158 0 0.29034659 0
-0.030358264 0.232108 0.0096678287 0 -1 0 0
-0.02739663 0.232108 0.0095892828 0 -1 0 0
-0.026331456 0.232108 0.0099760173 0 -1 0 0
-0.025932064 0.232108 0.0097260186 0 -1 0 0
0.025845682 0.232108 0.0091198161 0 -1 0 0
0.026687397 0.232108 0.0092424219 0 -1 0 0
0.028294574 0.232108 0.0097019412 0 -1 0 0
0.029414799 0.232108 0.0095462352 0 -1 0 0
0.030938597 0.232108 0.0094831958 0 -1 0 0
0.031288825 0.232108 0.0092145288 0 -1 0 0
-0.031770147 0.23328127 0.0096261166 -0.95694214 0 0.29027882 0
-0.031540472 0.23465794 0.0095785093 -0.67666024 0.70710677 0.2052581 0
-0.030944142 0.234853 0.0091727767 0 1 0 0
-0.028382188 0.23485301 0.0090939347 0 1 0 0
-0.026903525 0.234853 0.0091702957 0 1 0 0
-0.024923304 0.234853 0.0095652044 0 1 0 0
-0.02356171 0.23485298 0.0096660731 0 1 0 0
-0.022871086 0.234853 0.0095459456 0 1 0 0
-0.019249514 0.234853 0.0093700355 0 1 0 0
-0.018440843 0.234853 0.0092003262 0 1 0 0
-0.017556794 0.234853 0.0097096972 0 1 0 0
-0.016971001 0.234853 0.0099177621 0 1 0 0
-0.015050869 0.234853 0.0093315486 0 1 0 0
-0.012342952 0.234853 0.0097259358 0 1 0 0
-0.011653868 0.234853 0.0097589474 0 1 0 0
-0.010235945 0.234853 0.0090085221 0 1 0 0
-0.0084169134 0.234853 0.0095986221 0 1 0 0
-0.0076184403 0.23485298 0.0097054159 0 1 0 0
-0.0065099988 0.23485298 0.0095221382 0 1 0 0
-0.0056115119 0.234853 0.009388987 0 1 0 0
-0.0045935586 0.23485298 0.0092774471 0 1 0 0
-0.0014782641 0.234853 0.0094117783 0 1 0 0
-0.00060225697 0.234853 0.0091120386 0 1 0 0
0.00090333878 0.234853 0.0096454388 0 1 0 0
0.0028510983 0.234853 0.0095763896 0 1 0 0
0.0031589358 0.234853 0.0098141776 0 1 0 0
0.0048183375 0.234853 0.0096808253 0 1 0 0
0.0052442392 0.234853 0.0091847982 0 1 0 0
0.0072310357 0.234853 0.0094027137 0 1 0 0
0.0086587295 0.234853 0.0094595626 0 1 0 0
0.0093175648 0.23485298 0.0096113281 0 1 0 0
0.010534058 0.234853 0.0096035562 0 1 0 0
0.011653503 0.234853 0.0098297289 0 1 0 0
0.012506975 0.234853 0.0095114186 0 1 0 0
0.015950374 0.234853 0.0094521642 0 1 0 0
0.016324516 0.234853 0.0097305831 0 1 0 0
0.018477893 0.234853 0.0093320683 0 1 0 0
0.019590199 0.234853 0.0090719471 0 1 0 0
0.020294243 0.234853 0.0094616786 0 1 0 0
0.022442928 0.234853 0.0095158294 0 1 0 0
0.023807082 0.234853 0.0094541973 0 1 0 0
0.024504643 0.234853 0.0095798187 0 1 0 0
0.026416 0.234853 0.0090132216 0 1 0 0
0.028397081 0.234853 0.0092810849 0 1 0 0
0.029533494 0.234853 0.0094316332 0 1 0 0
0.030369341 0.234853 0.0094710914 0 1 0 0
0.031311058 0.234853 0.0096853888 0 1 0 0
-0.063360423 -0.000201 0.010583347 0 -1 0 0
-0.061389945 -0.000201 0.010914916 0 -1 0 0
-0.058638342 -0.000201 0.010581875 0 -1 0 0
-0.057670347 -0.00020100002 0.010305481 0 -1 0 0
-0.055316806 -0.00020100002 0.010537908 0 -1 0 0
-0.054548401 -0.000201 0.010248664 0 -1 0 0
-0.053331047 -0.000201 0.010547752 0 -1 0 0
-0.050270993 -0.000201 0.010391485 0 -1 0 0
-0.048545204 -0.000201 0.010029648 0 -1 0 0
-0.047261454 -0.000201 0.010378487 0 -1 0 0
-0.045183443 -0.000201 0.010414485 0 -1 0 0
-0.044454828 -0.000201 0.010414946 0 -1 0 0
-0.043343522 -0.000201 0.010566754 0 -1 0 0
-0.042683642 -0.000201 0.010222718 0 -1 0 0
-0.040008925 -0.000201 0.010175279 0 -1 0 0
-0.039247297 -0.000201 0.010806106 0 -1 0 0
-0.037792139 -0.000201 0.010279953 0 -1 0 0
-0.036518596 -0.000201 0.010248721 0 -1 0 0
-0.033140801 -0.000201 0.010859264 0 -1 0 0
-0.032556243 -0.000201 0.010237454 0 -1 0 0
-0.031788964 -0.000201 0.010737412 0 -1 0 0
-0.030919252 -0.000201 0.010338663 0 -1 0 0
-0.029437507 -0.000201 0.010481915 0 -1 0 0
-0.028101979 -0.000201 0.010692658 0 -1 0 0
-0.02620507 -0.000201 0.010411629 0 -1 0 0
-0.024114249 -0.000201 0.010796499 0 -1 0 0
-0.023129933 -0.000201 0.010713117 0 -1 0 0
-0.022363912 -0.000201 0.010165093 0 -1 0 0
-0.021957753 -0.000201 0.010763559 0 -1 0 0
-0.020866239 -0.000201 0.01075872 0 -1 0 0
-0.01810804 -0.000201 0.010856335 0 -1 0 0
-0.017328747 -0.000201 0.010725367 0 -1 0 0
-0.01676403 -0.000201 0.01076387 0 -1 0 0
-0.015576252 -0.000201 0.010253585 0 -1 0 0
-0.014771303 -0.000201 0.010399429 0 -1 0 0
-0.013441734 -0.000201 0.010653607 0 -1 0 0
-0.01274521 -0.000201 0.010991761 0 -1 0 0
-0.0111329 -0.000201 0.010033199 0 -1 0 0
-0.01076224 -0.000201 0.010004778 0 -1 0 0
-0.0086469967 -0.000201 0.010685921 0 -1 0 0
-0.0066932752 -0.000201 0.010571569 0 -1 0 0
-0.0057019331 -0.000201 0.010467421 0 -1 0 0
-0.0020986923 -0.000201 0.010584038 0 -1 0 0
0.00058270607 -0.000201 0.010439767 0 -1 0 0
0.0018186367 -0.000201 0.010486272 0 -1 0 0
0.0059717335 -0.000201 0.010948718 0 -1 0 0
0.0064544766 -0.000201 0.010568343 0 -1 0 0
0.0086287791 -0.000201 0.010774438 0 -1 0 0
0.0097170332 -0.00020099999 0.010598801 0 -1 0 0
0.011539258 -0.000201 0.010460395 0 -1 0 0
0.01370645 -0.000201 0.010673931 0 -1 0 0
0.014355965 -0.000201 0.010379364 0 -1 0 0
0.015362147 -0.00020100002 0.010355797 0 -1 0 0
0.018739494 -0.000201 0.010675915 0 -1 0 0
0.0191842 -0.00020100002 0.0101082 0 -1 0 0
0.020259056 -0.000201 0.010232495 0 -1 0 0
0.021319695 -0.00020100002 0.010983762 0 -1 0 0
0.024982482 -0.00020099999 0.01078782 0 -1 0 0
0.026569378 -0.000201 0.010679982 0 -1 0 0
0.027072096 -0.000201 0.010978199 0 -1 0 0
0.031488203 -0.000201 0.010180429 0 -1 0 0
0.033835661 -0.000201 0.010155044 0 -1 0 0
0.034472045 -0.00020100002 0.010478066 0 -1 0 0
0.035431407 -0.000201 0.010246515 0 -1 0 0
0.036570035 -0.00020100002 0.010430854 0 -1 0 0
0.037150867 -0.000201 0.010941483 0 -1 0 0
0.039704882 -0.000201 0.01068302 0 -1 0 0
0.041389789 -0.000201 0.010608177 0 -1 0 0
0.04470304 -0.000201 0.010288564 0 -1 0 0
0.045718119 -0.000201 0.01064124 0 -1 0 0
0.046538528 -0.000201 0.010917716 0 -1 0 0
0.047347035 -0.000201 0.010323783 0 -1 0 0
0.048460674 -0.000201 0.01038858 0 -1 0 0
0.049454823 -0.000201 0.010550599 0 -1 0 0
0.051664419 -0.000201 0.010933938 0 -1 0 0
0.052261505 -0.000201 0.010828351 0 -1 0 0
0.053826738 -0.000201 0.010638442 0 -1 0 0
0.054764651 -0.000201 0.010201176 0 -1 0 0
0.055341367 -0.000201 0.010034048 0 -1 0 0
0.058530342 -0.000201 0.010196548 0 -1 0 0
0.060562149 -0.000201 0.010082308 0 -1 0 0
0.063431486 0.00033406791 0.010961615 0.98088706 0.1689132 0.096586473 0
-0.063332967 0.0011700639 0.010500122 -0.98088706 0.1689132 0.096586473 0
0.063252673 0.0016227593 0.010523804 0.98088706 0.1689132 0.096586473 0
-0.063032292 0.0026957053 0.010885518 -0.98088706 0.1689132 0.096586473 0
0.063083231 0.0026334599 0.010477172 0.98088706 0.1689132 0.096586473 0
-0.062931158 0.0036034735 0.010325076 -0.98088706 0.1689132 0.096586473 0
0.06295488 0.0036398361 0.010020527 0.98088706 0.1689132 0.096586473 0
0.063043483 0.0030052608 0.01023052 0.98088706 0.1689132 0.096586473 0
-0.062820159 0.0043330365 0.01017648 -0.98088706 0.1689132 0.096586473 0
0.06277696 0.0045127235 0.010300918 0.98088706 0.1689132 0.096586473 0
-0.062590294 0.0054543428 0.010549873 -0.980887 0.16891319 0.096586466 0
-0.062337354 0.0068884795 0.010610248 -0.98087585 0.16893619 0.096659951 0
0.062537707 0.0060669435 0.010012608 0.98088706 0.1689132 0.096586473 0
-0.062040363 0.0088211484 0.010246263 -0.98087579 0.16893619 0.096659951 0
0.062066168 0.0085728057 0.010418426 0.98087585 0.16893618 0.096659951 0
-0.061732627 0.010242356 0.010885188 -0.98087585 0.16893619 0.096659951 0
0.061707396 0.010326283 0.010994516 0.98087585 0.16893618 0.096659951 0
-0.061519265 0.011655602 0.01058032 -0.98087585 0.16893619 0.096659951 0
0.061462425 0.011873367 0.010776534 0.98087585 0.16893618 0.096659951 0
-0.061474599 0.012176489 0.010123202 -0.98087585 0.16893619 0.096659951 0
-0.061227124 0.013642631 0.010072087 -0.98087585 0.16893619 0.096659951 0
0.0612248 0.013526507 0.010298602 0.98087585 0.16893618 0.096659951 0
-0.061134625 0.014044405 0.010308533 -0.98087585 0.16893619 0.096659951 0
-0.060928497 0.014901551 0.010902158 -0.98087585 0.16893619 0.096659951 0
-0.060645916 0.016869137 0.010330919 -0.98087585 0.16893619 0.096659951 0
-0.060572874 0.017277667 0.010358121 -0.98087585 0.16893619 0.096659951 0
0.060460728 0.017674407 0.010802751 0.98087585 0.16893618 0.096659951 0
0.060335662 0.018674791 0.010323483 0.98087585 0.16893618 0.096659951 0
0.060199216 0.019103806 0.010958272 0.98087585 0.16893618 0.096659951 0
-0.060040705 0.02013932 0.010756953 -0.98087585 0.16893619 0.096659951 0
-0.059994437 0.020280182 0.010980307 -0.98087585 0.16893619 0.096659951 0
-0.059790298 0.021710254 0.010552469 -0.98087585 0.16893619 0.096659951 0
0.059872154 0.021454155 0.010169406 0.98087585 0.16893618 0.096659951 0
0.059654087 0.022714563 0.010179412 0.98087585 0.16893618 0.096659951 0
0.059478659 0.023820955 0.010025961 0.98087585 0.16893618 0.096659951 0
-0.059336588 0.024385978 0.010480091 -0.98087585 0.16893619 0.096659951 0
0.059306171 0.024824603 0.010022158 0.98087585 0.16893618 0.096659951 0
-0.059210259 0.025345804 0.010084482 -0.98087585 0.16893619 0.096659951 0
0.058831152 0.027323529 0.01047505 0.98087585 0.16893618 0.096659951 0
-0.058745012 0.0280187 0.010134191 -0.98087585 0.16893619 0.096659951 0
-0.058441676 0.029699523 0.01027471 -0.98087585 0.16893619 0.096659951 0
0.058425777 0.029822793 0.010220627 0.98087585 0.16893618 0.096659951 0
-0.058234632 0.030752866 0.01053479 -0.98087585 0.16893619 0.096659951 0
0.058278203 0.030658608 0.010257374 0.98087585 0.16893618 0.096659951 0
-0.058089748 0.031866912 0.010057944 -0.98087585 0.16893619 0.096659951 0
-0.058040883 0.032112021 0.010125465 -0.98087585 0.16893619 0.096659951 0
-0.057820719 0.032892633 0.010995288 -0.98087585 0.16893619 0.096659951 0
-0.057706982 0.033623286 0.010872477 -0.98087585 0.16893619 0.096659951 0
0.057732768 0.033736825 0.010412365 0.98087585 0.16893618 0.096659951 0
0.057633605 0.034029998 0.010906264 0.98087585 0.16893618 0.096659951 0
-0.057414666 0.035573423 0.010430455 -0.98087585 0.16893619 0.096659951 0
0.057334442 0.03589569 0.010681352 0.98087585 0.16893618 0.096659951 0
-0.057350606 0.036065578 0.010220389 -0.98087585 0.16893619 0.096659951 0
0.057278302 0.036210191 0.010701368 0.98087585 0.16893618 0.096659951 0
-0.057071716 0.037360385 0.010787496 -0.98087585 0.16893619 0.096659951 0
0.057116691 0.037380137 0.010296574 0.98087585 0.16893618 0.096659951 0
-0.05684511 0.038569495 0.010688346 -0.9761219 0.19476466 0.096191466 0
0.056872219 0.038531274 0.010490607 0.9761219 0.19476466 0.096191466 0
-0.056768242 0.039052453 0.01049052 -0.9761219 0.19476466 0.096191466 0
0.056693375 0.03939224 0.01056225 0.9761259 0.19475605 0.096168622 0
-0.056504473 0.040428918 0.010380236 -0.97612983 0.19474745 0.096145779 0
0.056488436 0.040477745 0.01044422 0.9761259 0.19475605 0.096168622 0
-0.056205787 0.041934483 0.010363076 -0.97612983 0.19474745 0.096145779 0
-0.056105997 0.042416606 0.01039963 -0.97612983 0.19474745 0.096145779 0
0.056087006 0.042608358 0.010204066 0.97612983 0.19474745 0.096145779 0
-0.055846598 0.043745484 0.010341526 -0.97612983 0.19474745 0.096145779 0
-0.055693876 0.04444322 0.010478764 -0.97612983 0.19474745 0.096145779 0
0.05569838 0.04423384 0.010857172 0.97612983 0.19474745 0.096145779 0
-0.055310879 0.046246786 0.01071401 -0.97612983 0.19474745 0.096145779 0
-0.055012885 0.047685377 0.010825479 -0.97612983 0.19474745 0.096145779 0
0.055171132 0.047103845 0.010396739 0.97612983 0.19474745 0.096145779 0
0.054892987 0.048437674 0.010484427 0.96182257 0.1956542 0.19135506 0
-0.054694302 0.049401842 0.010583163 -0.97612983 0.19474745 0.096145779 0
-0.053990703 0.052928887 0.010582327 -0.97612983 0.19474745 0.096145779 0
0.054129124 0.052206758 0.010639663 0.97612983 0.19474745 0.096145779 0
-0.053995922 0.053146504 0.010088539 -0.97612983 0.19474745 0.096145779 0
0.053758152 0.054289937 0.010186476 0.97612983 0.19474745 0.096145779 0
0.053409286 0.05558446 0.010786304 0.93859893 0.19474715 0.2847904 0
-0.053210236 0.056544237 0.010785999 -0.93859899 0.19474716 0.2847904 0
0.053261459 0.056546718 0.010534734 0.96182257 0.1956542 0.19135506 0
0.053147249 0.057143308 0.010583944 0.93859893 0.19474715 0.2847904 0
-0.052876472 0.058362175 0.010579745 -0.96760517 0.19555284 0.15968506 0
0.052832372 0.058657132 0.010445401 0.96182257 0.1956542 0.19135506 0
-0.052727062 0.059541926 0.010016584 -0.97612983 0.19474745 0.096145779 0
0.052657805 0.059662942 0.010363352 0.96182257 0.19565418 0.19135503 0
-0.052356496 0.060857855 0.010617309 -0.96182257 0.1956542 0.19135505 0
0.05241663 0.060596816 0.010572933 0.96182257 0.1956542 0.19135506 0
-0.052272685 0.061168592 0.010713669 -0.93859899 0.19474716 0.2847904 0
-0.052151095 0.062369138 0.010137513 -0.97612983 0.19474745 0.096145779 0
0.051994253 0.062173069 0.010944431 0.93859893 0.19474715 0.2847904 0
0.052004077 0.062807374 0.010478315 0.93859893 0.19474715 0.2847904 0
-0.051847238 0.063867785 0.010186831 -0.97612983 0.19474745 0.096145779 0
0.051754929 0.063873254 0.010570561 0.93859893 0.19474715 0.2847904 0
0.051476721 0.064775437 0.010870527 0.93859893 0.19474715 0.2847904 0
-0.051421147 0.065907665 0.010274696 -0.93787116 0.19853939 0.28456956 0
0.051481932 0.065398954 0.01037969 0.95504314 0.19555275 0.22282669 0
-0.051313147 0.066553645 0.010128327 -0.97537458 0.19854353 0.096046485 0
0.051301181 0.066330299 0.010375209 0.93787116 0.19853939 0.28456956 0
0.051018599 0.06742157 0.010545156 0.93787116 0.19853939 0.28456956 0
-0.050787691 0.068996593 0.010207308 -0.93787116 0.19853939 0.28456956 0
0.050782252 0.068026714 0.010901911 0.93787116 0.19853939 0.28456956 0
0.050412558 0.070263378 0.010559842 0.93787116 0.19853939 0.28456956 0
-0.050135106 0.07146661 0.010634797 -0.93787116 0.19853939 0.28456956 0
-0.049445536 0.075609192 0.010017239 -0.93787116 0.19853939 0.28456956 0
0.04934895 0.075272225 0.010570654 0.93787116 0.19853939 0.28456956 0
-0.049185932 0.076269463 0.010412163 -0.93787116 0.19853939 0.28456956 0
0.04898119 0.076527454 0.010906935 0.93787116 0.19853939 0.28456956 0
-0.048860524 0.07756751 0.010578995 -0.93787116 0.19853939 0.28456953 0
0.048782621 0.077571377 0.010833047 0.93787116 0.19853939 0.28456956 0
0.049017977 0.077168547 0.01033842 0.93787116 0.19853939 0.28456956 0
0.04857599 0.078674033 0.010744743 0.93787116 0.19853939 0.28456956 0
-0.04844154 0.079424426 0.010664327 -0.93787116 0.19853939 0.28456956 0
-0.048228916 0.08052019 0.010600586 -0.93787116 0.19853939 0.28456956 0
-0.047919959 0.082458295 0.010266638 -0.93787116 0.19853939 0.28456956 0
0.04790625 0.082446732 0.010319909 0.93787116 0.19853939 0.28456956 0
0.047577836 0.083032437 0.010993632 0.93787116 0.19853939 0.28456956 0
-0.047428042 0.084396712 0.010535484 -0.93787116 0.19853939 0.28456956 0
0.047210492 0.085326895 0.010603504 0.93787116 0.19853939 0.28456956 0
-0.047124922 0.086400077 0.010136773 -0.93787116 0.19853939 0.28456956 0
-0.046811853 0.087778956 0.010206548 -0.93787116 0.19853939 0.28456956 0
-0.046514675 0.08819177 0.010897962 -0.93787116 0.19853939 0.28456956 0
0.04653893 0.088326842 0.010723793 0.93787116 0.19853939 0.28456956 0
-0.046540271 0.089145407 0.010148275 -0.93787116 0.19853939 0.28456956 0
0.046371028 0.089278869 0.01061293 0.93787116 0.19853939 0.28456956 0
-0.046395682 0.0900103 0.010021374 -0.93787116 0.19853939 0.28456956 0
-0.045873739 0.091539413 0.010674736 -0.9378711 0.19853945 0.28456977 0
0.046063282 0.09109199 0.01036221 0.93787116 0.19853939 0.28456956 0
-0.045612331 0.09234146 0.010976709 -0.93787104 0.19853953 0.28457001 0
0.045713171 0.092540078 0.010505792 0.93787104 0.19853953 0.28457001 0
0.045497961 0.09344852 0.010581248 0.93787104 0.19853953 0.28457001 0
-0.045288 0.09477742 0.010346096 -0.93787104 0.19853953 0.28457001 0
-0.044947572 0.095843121 0.010724531 -0.93787104 0.19853953 0.28457001 0
0.045158822 0.095101893 0.010545447 0.93787104 0.19853953 0.28457001 0
-0.044891644 0.096454404 0.010422508 -0.92369789 0.26121098 0.28026959 0
-0.044475704 0.097617447 0.0107094 -0.92369789 0.26121098 0.28026959 0
0.044430684 0.097781904 0.0107045 0.92369789 0.26121101 0.28026959 0
-0.044328626 0.098627143 0.010253115 -0.92369789 0.26121098 0.28026959 0
0.04421635 0.098644182 0.010607263 0.92369789 0.26121101 0.28026959 0
-0.044028156 0.099728383 0.010217026 -0.92369789 0.26121098 0.28026959 0
-0.043886866 0.10023774 0.01020796 -0.92369789 0.26121098 0.28026959 0
0.043454528 0.10106321 0.010863513 0.92369789 0.26121101 0.28026959 0
-0.042984392 0.10295696 0.010647968 -0.92369789 0.26121098 0.28026959 0
0.042940665 0.10295282 0.010795947 0.92369789 0.26121101 0.28026959 0
0.043125529 0.10254607 0.010565773 0.92369789 0.26121101 0.28026959 0
-0.042884804 0.1031879 0.010760958 -0.92369789 0.26121098 0.28026959 0
-0.042495519 0.10439336 0.010920448 -0.92369789 0.26121098 0.28026959 0
-0.042248152 0.10532265 0.010869607 -0.92369789 0.26121098 0.28026959 0
0.042465854 0.10520402 0.010262628 0.92370695 0.26122102 0.28023049 0
-0.041598834 0.10798822 0.010525211 -0.92370695 0.26122102 0.28023049 0
0.041763313 0.10708204 0.010827743 0.92370695 0.26122102 0.28023049 0
0.041534796 0.10828353 0.010461007 0.92370695 0.26122102 0.28023049 0
-0.041168652 0.10983992 0.010217105 -0.92370695 0.26122102 0.28023049 0
0.041276347 0.1094294 0.010244783 0.92370695 0.26122102 0.28023049 0
0.040725436 0.11075767 0.01082255 0.92370695 0.26122102 0.28023049 0
-0.040662032 0.11158892 0.010256687 -0.92370695 0.26122102 0.28023049 0
0.040327724 0.11258452 0.010430586 0.92370695 0.26122102 0.28023049 0
-0.039996538 0.11356064 0.010612345 -0.92370695 0.26122102 0.28023049 0
0.039899923 0.11376705 0.010738398 0.92370695 0.26122102 0.28023049 0
0.040116001 0.11367287 0.010113937 0.92370695 0.26122102 0.28023049 0
0.039866693 0.11467022 0.010006025 0.92370695 0.26122102 0.28023049 0
-0.039475054 0.1157034 0.010333864 -0.92370695 0.26122102 0.28023049 0
0.039662223 0.11502112 0.010352916 0.92370695 0.26122102 0.28023049 0
-0.039245334 0.11642995 0.010413827 -0.92370695 0.26122102 0.28023049 0
0.039167933 0.11663014 0.010482349 0.92370695 0.26122102 0.28023049 0
-0.039015893 0.11702463 0.010615773 -0.92370695 0.26122102 0.28023049 0
-0.038971014 0.1170274 0.010761122 -0.92370695 0.26122102 0.28023049 0
0.038863029 0.11723279 0.010925602 0.92370695 0.26122102 0.28023049 0
-0.038654584 0.1185028 0.01042884 -0.92370695 0.26122102 0.28023049 0
0.038607694 0.11885308 0.010256888 0.92370695 0.26122102 0.28023049 0
-0.03830323 0.1194097 0.010741614 -0.92370695 0.26122102 0.28023049 0
0.038539063 0.11915834 0.010198547 0.92370695 0.26122102 0.28023049 0
-0.038011171 0.12083428 0.010376367 -0.92370695 0.26122102 0.28023049 0
-0.037854776 0.12163225 0.010148047 -0.92370695 0.26122102 0.28023049 0
0.03770325 0.12163002 0.010649574 0.92370695 0.26122102 0.28023049 0
0.037547976 0.12272622 0.010139566 0.92370695 0.26122102 0.28023049 0
-0.037238035 0.12349132 0.010448005 -0.92370695 0.26122102 0.28023049 0
-0.037092835 0.12445856 0.010024974 -0.92370695 0.26122102 0.28023049 0
-0.036938064 0.12479352 0.01022291 -0.92370695 0.26122102 0.28023049 0
-0.036876813 0.12523814 0.010010358 -0.92370695 0.26122102 0.28023049 0
-0.036267575 0.12662873 0.01072228 -0.92370695 0.26122102 0.28023049 0
0.036212571 0.12668628 0.010849953 0.92370695 0.26122102 0.28023049 0
0.036062587 0.12731835 0.010728274 0.91791219 0.28264886 0.27847242 0
-0.035838369 0.12844589 0.010322893 -0.91791219 0.28264889 0.27847242 0
0.035714116 0.12865807 0.010517098 0.91791219 0.28264886 0.27847242 0
-0.035410579 0.1297105 0.010449429 -0.91791219 0.28264889 0.27847242 0
0.035684649 0.12923937 0.010024229 0.91791219 0.28264886 0.27847242 0
-0.03496721 0.13095221 0.010650523 -0.91791219 0.28264889 0.27847242 0
0.035283159 0.13027187 0.01029964 0.91791219 0.28264886 0.27847242 0
-0.035019692 0.13126968 0.010155316 -0.91791219 0.28264889 0.27847242 0
0.034723241 0.1319122 0.010480331 0.91791219 0.28264886 0.27847242 0
-0.03415272 0.13375135 0.01049418 -0.91791219 0.28264889 0.27847242 0
0.034183174 0.13326615 0.010886259 0.91791219 0.28264886 0.27847242 0
0.033950094 0.13457839 0.010322625 0.91791219 0.28264886 0.27847242 0
0.034022395 0.13400622 0.010665079 0.91791219 0.28264886 0.27847242 0
-0.033529505 0.13586929 0.01039873 -0.91791219 0.28264889 0.27847242 0
0.033697143 0.13538352 0.010339217 0.91791219 0.28264886 0.27847242 0
-0.033239819 0.13655606 0.010656532 -0.91791219 0.28264889 0.27847242 0
0.033447582 0.13601874 0.010517099 0.91791219 0.28264886 0.27847242 0
-0.033030231 0.13722412 0.010669351 -0.91793799 0.28262866 0.27840769 0
0.032966353 0.13750635 0.010593439 0.91793799 0.28262869 0.27840772 0
-0.032755405 0.13814759 0.010637993 -0.91793799 0.28262866 0.27840769 0
0.032449976 0.138822 0.010960404 0.91793799 0.28262869 0.27840772 0
-0.032487154 0.13957134 0.010077133 -0.91793799 0.28262866 0.27840769 0
0.032351516 0.13981873 0.010273188 0.91793799 0.28262869 0.27840772 0
0.031870659 0.14093091 0.0107296 0.91793799 0.28262869 0.27840772 0
0.032207217 0.14052564 0.010031345 0.91793799 0.28262869 0.27840772 0
-0.031931635 0.14125052 0.01020408 -0.91793799 0.28262866 0.27840769 0
0.031638652 0.14168236 0.010731697 0.91793799 0.28262869 0.27840772 0
-0.031542622 0.14231911 0.010401918 -0.91793799 0.28262866 0.27840769 0
0.031446129 0.14237645 0.010661846 0.91793799 0.28262869 0.27840772 0
-0.03108578 0.14346673 0.010743159 -0.91793799 0.28262866 0.27840769 0
0.030955316 0.14395997 0.010672578 0.91793799 0.28262869 0.27840772 0
0.031311154 0.14325896 0.010210986 0.91793799 0.28262869 0.27840772 0
-0.031032182 0.14415456 0.010221589 -0.91793799 0.28262866 0.27840769 0
-0.030634223 0.14469489 0.01098519 -0.91793799 0.28262866 0.27840769 0
0.030781228 0.14453548 0.010662319 0.91793799 0.28262869 0.27840772 0
-0.030418228 0.14556722 0.010811793 -0.91793799 0.28262866 0.27840769 0
0.030708754 0.14509599 0.010332282 0.91793799 0.28262869 0.27840772 0
-0.030358994 0.1461477 0.010417809 -0.91793799 0.28262866 0.27840769 0
-0.029957024 0.1469695 0.010908905 -0.91793799 0.28262866 0.27840769 0
0.030281024 0.14626479 0.010556024 0.91793799 0.28262869 0.27840772 0
-0.029864337 0.14758898 0.010585625 -0.91793799 0.28262866 0.27840769 0
-0.02976588 0.1484516 0.010034533 -0.91793799 0.28262866 0.27840769 0
0.029691106 0.1482185 0.010517726 0.91793799 0.28262869 0.27840772 0
-0.02916804 0.14982684 0.010808215 -0.92815608 0.24347527 0.28150684 0
0.029322665 0.14937973 0.010685098 0.92815608 0.24347527 0.28150681 0
-0.029105177 0.15059908 0.010347566 -0.92815608 0.24347527 0.28150684 0
0.02897783 0.1504703 0.010878836 0.92815608 0.24347527 0.28150681 0
-0.028809965 0.15122634 0.010778394 -0.92815608 0.24347527 0.28150684 0
0.028747221 0.15142231 0.010815768 0.92815608 0.24347527 0.28150681 0
0.029014733 0.15102111 0.010280744 0.92815608 0.24347527 0.28150681 0
-0.028484279 0.15225811 0.010959838 -0.92815608 0.24347527 0.28150684 0
0.028477853 0.15274228 0.010562278 0.92815614 0.2434753 0.28150684 0
-0.028287116 0.15392195 0.010170848 -0.92815608 0.24347527 0.28150684 0
-0.027922254 0.15463066 0.01076087 -0.92815608 0.24347527 0.28150684 0
0.028139161 0.15429035 0.010340042 0.92815608 0.24347527 0.28150681 0
-0.027864287 0.15519495 0.01046393 -0.92815608 0.24347527 0.28150684 0
0.027758265 0.15533349 0.010693669 0.92815608 0.24347527 0.28150681 0
0.027395656 0.15657154 0.010818438 0.92815608 0.24347527 0.28150681 0
-0.0272466 0.15757853 0.010438954 -0.92815608 0.24347527 0.28150684 0
0.027307019 0.15728645 0.01049236 0.92815608 0.24347527 0.28150681 0
-0.027014503 0.15810806 0.010746215 -0.92815608 0.24347527 0.28150684 0
0.026730916 0.15953363 0.010448252 0.92815614 0.2434753 0.28150684 0
-0.026567956 0.16026881 0.010349674 -0.92815608 0.24347527 0.28150684 0
0.026382806 0.16065906 0.010604003 0.90755194 0.24445975 0.34145114 0
-0.026317881 0.1613093 0.010274278 -0.92815608 0.24347527 0.28150684 0
0.026110288 0.16179781 0.010536229 0.92815608 0.24347527 0.28150681 0
-0.025975378 0.16244991 0.010417039 -0.92815608 0.24347527 0.28150684 0
0.025864279 0.16270281 0.010506142 0.90755194 0.24445973 0.34145114 0
0.026061269 0.16225274 0.010304373 0.92815614 0.2434753 0.28150684 0
-0.025618497 0.16334516 0.010739448 -0.8553797 0.24347538 0.45721471 0
-0.02548836 0.16478595 0.01000234 -0.92815608 0.24347527 0.28150684 0
-0.024898699 0.16556585 0.010903516 -0.8553797 0.24347538 0.45721471 0
-0.024887156 0.16610917 0.010635783 -0.8553797 0.24347538 0.45721471 0
0.024768542 0.16676649 0.01049711 0.87246323 0.24418291 0.42329979 0
0.025100002 0.16618815 0.010070045 0.92815608 0.24347527 0.28150681 0
0.024441566 0.1672498 0.010862004 0.8553797 0.24347538 0.45721474 0
0.024231154 0.16866675 0.010491666 0.88298976 0.21344574 0.41805503 0
-0.024380153 0.16915435 0.01000049 -0.95013291 0.11915553 0.28818309 0
0.02386192 0.16979012 0.010845806 0.87563682 0.11914913 0.46804249 0
-0.023758922 0.17077233 0.010788455 -0.87563682 0.11914913 0.46804249 0
0.024036542 0.17035848 0.010374427 0.87563682 0.11914913 0.46804249 0
-0.023828447 0.17150196 0.010472644 -0.87563682 0.11914913 0.46804249 0
0.023873789 0.17142141 0.010408325 0.87563676 0.11914912 0.46804246 0
0.024125241 0.17115049 0.010006869 0.87563682 0.11914913 0.46804249 0
-0.023824092 0.17244053 0.010241871 -0.87563682 0.11914913 0.46804249 0
0.023739411 0.17239784 0.010411163 0.87563676 0.11914912 0.46804246 0
-0.023439676 0.17347905 0.010696673 -0.87563682 0.11914913 0.46804249 0
0.023567701 0.17302181 0.010573559 0.87563682 0.11914913 0.46804249 0
-0.023362231 0.1744394 0.010597085 -0.87563682 0.11914913 0.46804249 0
0.023544576 0.17410673 0.010340635 0.87563682 0.11914913 0.46804249 0
-0.023275977 0.1764899 0.010236456 -0.87563676 0.11914912 0.46804246 0
-0.022693854 0.17788209 0.01097107 -0.8755914 0.11918618 0.46811792 0
0.023227911 0.17722841 0.010138387 0.87563682 0.11914913 0.46804249 0
-0.023139447 0.17836213 0.010015272 -0.87563682 0.11914913 0.46804249 0
-0.022958051 0.17847961 0.01032473 -0.87563682 0.11914913 0.46804249 0
0.022593986 0.17850783 0.010998553 0.8755914 0.11918618 0.46811789 0
-0.02269626 0.17937921 0.010585394 -0.8755914 0.11918618 0.46811792 0
0.022801965 0.17949779 0.010357486 0.8755914 0.11918618 0.46811789 0
-0.022800805 0.18081136 0.010064258 -0.88187754 0 0.47147864 0
0.022528699 0.18034506 0.0106529 0.87559146 0.11918619 0.46811786 0
-0.022590827 0.1812095 0.010457012 -0.88187754 0 0.47147864 0
0.022390829 0.18143612 0.010831096 0.88187754 0 0.47147864 0
-0.022487897 0.18253934 0.010649532 -0.88187754 0 0.47147864 0
-0.0227175 0.18379641 0.010220075 -0.88187754 0 0.47147864 0
0.022344775 0.18305393 0.010917237 0.88187754 0 0.47147864 0
-0.022600604 0.18457207 0.010438721 -0.88187754 0 0.47147864 0
0.02244533 0.18453321 0.010729155 0.88187754 0 0.47147864 0
-0.022554569 0.18582176 0.010524828 -0.88187754 0 0.47147864 0
0.022561396 0.18544324 0.010512064 0.88187748 0 0.47147861 0
0.022668088 0.18696742 0.010312499 0.88187754 0 0.47147864 0
0.022315439 0.1877017 0.010972111 0.88187754 0 0.47147864 0
0.022708712 0.18848731 0.010236513 0.88187754 0 0.47147864 0
0.022657005 0.18930595 0.010333228 0.88187754 0 0.47147864 0
0.022590641 0.19049308 0.010457361 0.88187754 0 0.47147864 0
0.02268447 0.19109538 0.010281858 0.88187754 0 0.47147864 0
-0.022487443 0.19258174 0.010650385 -0.88187754 0 0.47147864 0
0.022821423 0.1926398 0.010025691 0.88187754 0 0.47147864 0
0.022503935 0.19354117 0.010619538 0.88187754 0 0.47147864 0
-0.022908622 0.19494212 0.010182482 -0.87038648 -0.16090547 0.46533522 0
0.022965048 0.19483636 0.010040377 0.87038648 -0.16090547 0.46533522 0
-0.022803739 0.19591835 0.010716231 -0.87038648 -0.16090547 0.46533522 0
0.022993837 0.1951075 0.010080285 0.87038648 -0.16090547 0.46533522 0
-0.023037324 0.19634295 0.01042613 -0.87046587 -0.16085362 0.4652046 0
-0.022885807 0.1963089 0.010697771 -0.87038648 -0.16090547 0.46533522 0
0.023180829 0.19694073 0.010364307 0.87046587 -0.16085362 0.4652046 0
0.023469213 0.19795766 0.010176324 0.87046587 -0.16085362 0.4652046 0
-0.023412371 0.19895908 0.010628939 -0.87046587 -0.16085362 0.4652046 0
0.023351861 0.19866244 0.0106396 0.87046582 -0.16085361 0.46520457 0
-0.023652492 0.19964361 0.010416333 -0.87046582 -0.16085361 0.46520457 0
0.02334705 0.19933611 0.010881532 0.87046587 -0.16085362 0.4652046 0
-0.023959804 0.20072418 0.010214933 -0.87046587 -0.16085362 0.4652046 0
0.023799084 0.20082678 0.010551138 0.87046587 -0.16085362 0.4652046 0
-0.023954147 0.20188724 0.010627669 -0.87046587 -0.16085362 0.4652046 0
0.023816505 0.20171081 0.010824212 0.87046587 -0.16085362 0.4652046 0
0.024370186 0.20267862 0.010122836 0.87046587 -0.16085362 0.4652046 0
0.024786079 0.20379142 0.010059291 0.42079991 -0.12000033 0.89918143 0
0.024488358 0.20431218 0.010536755 0.80623931 -0.15771154 0.57017994 0
-0.024667701 0.20592991 0.010690332 -0.87046587 -0.16085362 0.4652046 0
0.024623945 0.2054193 0.010595657 0.87046587 -0.16085362 0.4652046 0
-0.024768993 0.20623432 0.010572977 -0.89210719 -0.16142195 0.42200446 0
-0.025205711 0.20759186 0.010144676 -0.94448882 -0.16085748 0.28647119 0
-0.02485252 0.20750284 0.010888385 -0.87046587 -0.16085362 0.4652046 0
0.025262753 0.20780033 0.010328964 0.95362085 -0.083409131 0.28922358 0
-0.025230251 0.20837808 0.010395374 -0.91175628 -0.16161068 0.37760106 0
0.025152188 0.20842353 0.010646005 0.87046587 -0.16085362 0.4652046 0
-0.025694244 0.20977955 0.010464582 -0.87690735 -0.34955937 0.32991171 0
0.025670394 0.20948626 0.010216101 0.8970511 -0.3482517 0.27206653 0
0.026117135 0.21066421 0.010250865 0.89704204 -0.34823969 0.27211174 0
-0.026347687 0.21156581 0.010644665 -0.89704204 -0.34823969 0.27211171 0
-0.026789695 0.21246706 0.010340936 -0.89704198 -0.34823966 0.27211168 0
0.026836472 0.2128506 0.010677572 0.89704204 -0.34823969 0.27211174 0
-0.026858186 0.21315475 0.010995245 -0.89704204 -0.34823969 0.27211171 0
0.027722633 0.21464272 0.010049766 0.89704204 -0.34823969 0.27211174 0
-0.028111855 0.21596104 0.010453785 -0.89704204 -0.34823969 0.27211171 0
-0.027648021 0.21510093 0.010882143 -0.89704204 -0.34823969 0.27211171 0
-0.028027788 0.21609841 0.01090676 -0.89704204 -0.34823969 0.27211171 0
0.028459307 0.21670464 0.010260016 0.89704204 -0.34823969 0.27211174 0
-0.029330382 0.21879804 0.010067513 -0.89704204 -0.34823969 0.27211171 0
0.029121736 0.21840675 0.010254563 0.89704204 -0.34823969 0.27211174 0
0.029419603 0.21925484 0.010357991 0.89704204 -0.34823969 0.27211174 0
-0.029796252 0.2201816 0.010302362 -0.89704204 -0.34823969 0.27211171 0
0.030346582 0.22144927 0.010110458 0.89704204 -0.34823969 0.27211174 0
-0.030913368 0.22294798 0.010160016 -0.89704204 -0.34823969 0.27211171 0
0.030947633 0.22345325 0.010693671 0.89704204 -0.34823969 0.27211174 0
0.031063568 0.22333489 0.01016003 0.89704204 -0.34823969 0.27211174 0
-0.031490639 0.22441864 0.010139086 -0.89704204 -0.34823969 0.27211171 0
0.031381413 0.22443971 0.010526108 0.89704204 -0.34823969 0.27211174 0
-0.031689391 0.2254049 0.010746085 -0.89704204 -0.34823969 0.27211171 0
-0.03212145 0.22649559 0.010717573 -0.89704204 -0.34823969 0.27211171 0
-0.026488822 0.22654527 0.010011793 0.37067434 0.92193139 -0.11244159 0
-0.025069371 0.22650066 0.010502839 -0.83165574 0.33276266 0.44454223 0
-0.024906663 0.22604555 0.010817594 0.34161162 0.92193198 -0.18260053 0
0.025170403 0.22682469 0.010075867 0.95692158 0 0.29034659 0
0.026212191 0.22655638 0.010954289 -0.34161162 0.92193198 -0.18260051 0
0.02736073 0.22696838 0.010606516 -0.37067437 0.92193139 -0.11244159 0
0.032349899 0.22666402 0.010180016 0.89704204 -0.34823969 0.27211174 0
-0.029787457 0.22794303 0.010597919 0.37067434 0.92193139 -0.11244159 0
-0.028434794 0.22738406 0.010474119 0.37067434 0.92193139 -0.11244159 0
-0.027817504 0.22713709 0.01048398 0.37067434 0.92193139 -0.11244159 0
-0.02508652 0.22779475 0.010352328 -0.95692158 0 0.29034659 0
0.028118923 0.22724575 0.010381152 -0.37067437 0.92193139 -0.11244159 0
0.029107872 0.22768122 0.010691526 -0.37067437 0.92193139 -0.11244159 0
0.032400258 0.22713797 0.010620531 0.89704204 -0.34823969 0.27211174 0
-0.033011157 0.22823292 0.010007948 -0.89704204 -0.34823969 0.27211171 0
-0.032933116 0.22836073 0.010428767 -0.89704204 -0.34823969 0.27211171 0
-0.030978423 0.22843985 0.010745329 0.37067434 0.92193139 -0.11244159 0
0.02509295 0.22840501 0.010331132 0.95692158 0 0.29034659 0
0.030522391 0.22822183 0.010461025 -0.37067437 0.92193139 -0.11244159 0
0.03294953 0.22834711 0.01035724 0.89704204 -0.34823969 0.27211174 0
0.033140823 0.22894228 0.010488277 0.89704204 -0.34823969 0.27211174 0
-0.033215486 0.22917697 0.010324882 -0.95571673 -0.05057219 0.28991029 0
-0.025143074 0.22992036 0.010165939 -0.95692158 0 0.29034659 0
0.02511557 0.22924468 0.010256589 0.95692158 0 0.29034659 0
0.032494456 0.2290422 0.01068638 -0.37067437 0.92193139 -0.11244159 0
0.03323438 0.22916786 0.010468579 0.89704204 -0.34823969 0.27211174 0
0.025168294 0.23009767 0.010082819 0.95692158 0 0.29034659 0
-0.025061397 0.23114069 0.010414318 -0.88191557 0 0.47140744 0
-0.02491354 0.23136696 0.010690935 -0.88191557 0 0.47140744 0
0.024761483 0.23144594 0.010975403 0.88191557 0 0.47140744 0
0.025192156 0.23181659 0.010004172 0.95692158 0 0.29034659 0
-0.031287592 0.23252928 0.010596439 -0.67666024 -0.70710677 0.2052581 0
-0.030527398 0.232108 0.01038919 0 -1 0 0
-0.028595895 0.232108 0.010571568 0 -1 0 0
-0.027646348 0.232108 0.010283291 0 -1 0 0
-0.026591724 0.232108 0.010456842 0 -1 0 0
-0.025132714 0.232108 0.010331553 0 -1 0 0
0.026546702 0.232108 0.010104964 0 -1 0 0
0.028167611 0.232108 0.01072259 0 -1 0 0
0.030285737 0.232108 0.010560655 0 -1 0 0
-0.031554472 0.23337527 0.010337123 -0.95694214 0 0.29027882 0
-0.031613458 0.23470408 0.010142667 -0.95694214 0 0.29027882 0
-0.029389543 0.234853 0.01097474 0 1 0 0
-0.028641973 0.234853 0.010610472 0 1 0 0
-0.026253864 0.234853 0.010206224 0 1 0 0
-0.025816849 0.234853 0.010224027 0 1 0 0
-0.021515373 0.234853 0.010696501 0 1 0 0
-0.020784521 0.234853 0.010153328 0 1 0 0
-0.017407579 0.234853 0.010500111 0 1 0 0
-0.015096407 0.23485301 0.010797145 0 1 0 0
-0.014436715 0.23485298 0.010280921 0 1 0 0
-0.012524432 0.234853 0.010795761 0 1 0 0
-0.011532014 0.234853 0.010438772 0 1 0 0
-0.0085064126 0.23485298 0.010365665 0 1 0 0
-0.0076021468 0.234853 0.010553878 0 1 0 0
-0.0065916772 0.234853 0.010503247 0 1 0 0
-0.0053668041 0.234853 0.010419791 0 1 0 0
-0.003503412 0.23485298 0.010385494 0 1 0 0
0.00087231729 0.234853 0.010186118 0 1 0 0
0.0017357323 0.234853 0.010679397 0 1 0 0
0.0023469303 0.234853 0.010064889 0 1 0 0
0.0036517454 0.234853 0.010321413 0 1 0 0
0.0065584756 0.234853 0.010354662 0 1 0 0
0.0075574294 0.23485298 0.010577817 0 1 0 0
0.0099817757 0.234853 0.010951918 0 1 0 0
0.01041817 0.234853 0.01007986 0 1 0 0
0.01134828 0.234853 0.010291396 0 1 0 0
0.012576109 0.234853 0.010645848 0 1 0 0
0.013338687 0.234853 0.010392122 0 1 0 0
0.014034602 0.234853 0.01042377 0 1 0 0
0.016106075 0.234853 0.010407652 0 1 0 0
0.017851193 0.234853 0.010634216 0 1 0 0
0.01890344 0.234853 0.010588503 0 1 0 0
0.020528167 0.234853 0.010640332 0 1 0 0
0.021513714 0.234853 0.010492603 0 1 0 0
0.022255665 0.23485298 0.010255503 0 1 0 0
0.024362229 0.234853 0.01049934 0 1 0 0
0.025894679 0.234853 0.010024956 0 1 0 0
0.026654355 0.23485298 0.010373971 0 1 0 0
0.02724495 0.234853 0.010852078 0 1 0 0
0.028585788 0.234853 0.010374106 0 1 0 0
0.029752191 0.234853 0.010950421 0 1 0 0
0.031565052 0.234853 0.010262858 0 1 0 0
-0.061540347 -0.000201 0.011324664 0 -1 0 0
-0.05943092 -0.000201 0.01172047 0 -1 0 0
-0.058233839 -0.00020099999 0.011507126 0 -1 0 0
-0.057265799 -0.000201 0.011793016 0 -1 0 0
-0.056269072 -0.000201 0.011206806 0 -1 0 0
-0.055715121 -0.000201 0.011314508 0 -1 0 0
-0.053553797 -0.000201 0.011524073 0 -1 0 0
-0.052118298 -0.000201 0.01117507 0 -1 0 0
-0.051612213 -0.000201 0.01193839 0 -1 0 0
-0.050821416 -0.000201 0.01190479 0 -1 0 0
-0.049394801 -0.000201 0.011813758 0 -1 0 0
-0.048245035 -0.000201 0.01134351 0 -1 0 0
-0.047283385 -0.000201 0.011065217 0 -1 0 0
-0.046464115 -0.000201 0.011497732 0 -1 0 0
-0.045632064 -0.00020100002 0.011738757 0 -1 0 0
-0.044736605 -0.000201 0.011964987 0 -1 0 0
-0.043538816 -0.000201 0.011342043 0 -1 0 0
-0.042401206 -0.000201 0.011122633 0 -1 0 0
-0.041512974 -0.000201 0.011130424 0 -1 0 0
-0.040446308 -0.000201 0.011736982 0 -1 0 0
-0.038404483 -0.000201 0.011511742 0 -1 0 0
-0.037592258 -0.000201 0.011260241 0 -1 0 0
-0.036670614 -0.000201 0.011044051 0 -1 0 0
-0.035539068 -0.000201 0.011520473 0 -1 0 0
-0.034794856 -0.000201 0.0114896 0 -1 0 0
-0.032824755 -0.000201 0.011357584 0 -1 0 0
-0.031594686 -0.000201 0.011281474 0 -1 0 0
-0.030278897 -0.000201 0.011364029 0 -1 0 0
-0.02926298 -0.000201 0.011522181 0 -1 0 0
-0.027828746 -0.000201 0.01170039 0 -1 0 0
-0.026973188 -0.000201 0.011840018 0 -1 0 0
-0.025226668 -0.000201 0.011556138 0 -1 0 0
-0.02222975 -0.000201 0.011402666 0 -1 0 0
-0.021196263 -0.000201 0.011068166 0 -1 0 0
-0.020511717 -0.000201 0.011640904 0 -1 0 0
-0.019536942 -0.000201 0.011975172 0 -1 0 0
-0.018086057 -0.000201 0.011493887 0 -1 0 0
-0.017624173 -0.000201 0.011208464 0 -1 0 0
-0.01546285 -0.000201 0.011514109 0 -1 0 0
-0.014623376 -0.000201 0.011086674 0 -1 0 0
-0.01380295 -0.000201 0.011942587 0 -1 0 0
-0.012363728 -0.000201 0.011723445 0 -1 0 0
-0.01140404 -0.000201 0.011288208 0 -1 0 0
-0.010404631 -0.000201 0.011398369 0 -1 0 0
-0.0087918229 -0.000201 0.011713182 0 -1 0 0
-0.0074723866 -0.000201 0.01138143 0 -1 0 0
-0.0052971989 -0.000201 0.011502678 0 -1 0 0
-0.0043246681 -0.000201 0.011701206 0 -1 0 0
-0.0039110715 -0.000201 0.011041589 0 -1 0 0
-0.002021797 -0.000201 0.01174549 0 -1 0 0
-0.0014602353 -0.000201 0.011762773 0 -1 0 0
-0.00048764807 -0.000201 0.011529323 0 -1 0 0
0.0023296163 -0.000201 0.011408299 0 -1 0 0
0.0031650367 -0.00020100002 0.011236266 0 -1 0 0
0.0063066361 -0.000201 0.011356067 0 -1 0 0
0.0087629315 -0.000201 0.011717172 0 -1 0 0
0.011123452 -0.00020099999 0.011695555 0 -1 0 0
0.013629179 -0.000201 0.011934589 0 -1 0 0
0.016308947 -0.000201 0.011780889 0 -1 0 0
0.017234454 -0.000201 0.01141839 0 -1 0 0
0.019289643 -0.000201 0.011303767 0 -1 0 0
0.020669496 -0.000201 0.01123709 0 -1 0 0
0.021467146 -0.000201 0.011450465 0 -1 0 0
0.022534676 -0.000201 0.011928802 0 -1 0 0
0.023394216 -0.000201 0.011394564 0 -1 0 0
0.025101803 -0.000201 0.01184918 0 -1 0 0
0.027138803 -0.000201 0.011550098 0 -1 0 0
0.028584538 -0.000201 0.011891049 0 -1 0 0
0.029134208 -0.00020099999 0.011575355 0 -1 0 0
0.031465966 -0.00020099999 0.011320781 0 -1 0 0
0.032523256 -0.00020099999 0.01123363 0 -1 0 0
0.034583218 -0.00020100002 0.011817044 0 -1 0 0
0.035125762 -0.000201 0.011749581 0 -1 0 0
0.038395032 -0.000201 0.011278935 0 -1 0 0
0.039201342 -0.000201 0.011589279 0 -1 0 0
0.040464222 -0.000201 0.011142909 0 -1 0 0
0.041451402 -0.000201 0.011381604 0 -1 0 0
0.042937785 -0.000201 0.011533386 0 -1 0 0
0.043503061 -0.000201 0.011534375 0 -1 0 0
0.045761693 -0.000201 0.01186132 0 -1 0 0
0.047396969 -0.000201 0.011451405 0 -1 0 0
0.049723309 -0.000201 0.011835748 0 -1 0 0
0.050792575 -0.000201 0.011153028 0 -1 0 0
0.051129784 -0.000201 0.011331372 0 -1 0 0
0.053257503 -0.00020099999 0.011446464 0 -1 0 0
0.054109648 -0.000201 0.011599089 0 -1 0 0
0.055943359 -0.000201 0.011026772 0 -1 0 0
0.05640658 -0.00020100002 0.011793655 0 -1 0 0
0.057513632 -0.000201 0.011525903 0 -1 0 0
0.058359366 -0.000201 0.011606788 0 -1 0 0
0.060505826 -0.000201 0.011573985 0 -1 0 0
0.061631486 -0.000201 0.011735699 0 -1 0 0
0.06297034 -0.000201 0.011292805 0 -1 0 0
0.063414894 -0.00012751383 0.011937336 0.98088706 0.1689132 0.096586473 0
0.063371755 0.0002978603 0.011631498 0.98088706 0.1689132 0.096586473 0
0.06326066 0.0012311597 0.011127598 0.98088706 0.1689132 0.096586473 0
0.062948667 0.0028612891 0.011445229 0.98088706 0.1689132 0.096586473 0
-0.062662579 0.0045768539 0.011350092 -0.98087585 0.16893619 0.096659951 0
-0.06245067 0.0055849319 0.011738634 -0.98087585 0.16893619 0.096659951 0
0.062369898 0.0063874684 0.011155672 0.98087585 0.16893618 0.096659951 0
-0.062152565 0.007316146 0.011738037 -0.98087585 0.16893619 0.096659951 0
-0.061931327 0.0087672137 0.011446977 -0.98087585 0.16893619 0.096659951 0
0.061961129 0.0086432444 0.011361198 0.98087585 0.16893618 0.096659951 0
-0.061648943 0.010619423 0.011075361 -0.98087585 0.16893619 0.096659951 0
0.061688833 0.010169125 0.011457597 0.98087585 0.16893618 0.096659951 0
-0.061509471 0.011286103 0.011325519 -0.98087585 0.16893619 0.096659951 0
0.061383665 0.011849102 0.011618192 0.98087579 0.16893618 0.096659951 0
-0.061304141 0.012397082 0.011467414 -0.98087585 0.16893619 0.096659951 0
-0.061221648 0.013069494 0.011129308 -0.98087585 0.16893619 0.096659951 0
-0.060999639 0.013992463 0.011769082 -0.98087585 0.16893619 0.096659951 0
-0.060848478 0.015289592 0.011036044 -0.98087585 0.16893619 0.096659951 0
0.060732286 0.015714029 0.011473237 0.98087585 0.16893618 0.096659951 0
-0.060593884 0.016441341 0.011606576 -0.98087585 0.16893619 0.096659951 0
0.060551327 0.016624013 0.011719223 0.98087579 0.16893618 0.096659951 0
-0.060535207 0.017036209 0.011162333 -0.98087585 0.16893619 0.096659951 0
0.060440194 0.017504347 0.011308343 0.98087585 0.16893618 0.096659951 0
-0.060253881 0.01842178 0.011595566 -0.98087585 0.16893619 0.096659951 0
-0.060116395 0.019342022 0.011382364 -0.98087579 0.16893619 0.096659951 0
