# .PCD v0.7 - Point Cloud Data file format
VERSION 0.7
FIELDS x y z normal_x normal_y normal_z curvature
SIZE 4 4 4 4 4 4 4
TYPE F F F F F F F
COUNT 1 1 1 1 1 1 1
WIDTH 654
HEIGHT 1
VIEWPOINT 0 0 0 1 0 0 0
POINTS 654
DATA ascii
0.06707786 0.03178798 0.029427066 -0.44278005 0.7876789 -0.42837819 0
0.077854559 0.03131941 0.029408535 0.48460621 -0.76192391 0.42968458 0
0.079878502 0.031786852 0.029325029 -0.9165054 -0.23599583 0.32299179 0
0.080002114 0.031949867 0.029969715 -0.98900288 0.1285647 0.07310576 0
0.085683838 0.031163044 0.029199107 0.81567663 -0.56835419 -0.1079128 0
0.086018629 0.031624548 0.029299011 0.81567663 -0.56835419 -0.1079128 0
-0.086549811 0.032856427 0.029687986 -0.99447149 0.014649448 -0.1039805 0
-0.079314426 0.032212209 0.029570917 -0.12565799 -0.8123194 0.56951499 0
-0.078888923 0.032133739 0.029612828 -0.51298785 -0.73643732 0.44102558 0
-0.069481343 0.032765877 0.029135453 0.32884306 0.82786942 -0.4544166 0
-0.068481445 0.032371804 0.029141108 0.32884306 0.82786942 -0.4544166 0
-0.067405909 0.03228182 0.029996037 0.44278008 0.78767884 -0.42837822 0
-0.044312943 0.032325905 0.029606393 -0.59104538 0.55328649 -0.5869748 0
-0.043707296 0.032704744 0.029353641 -0.59104544 0.55328655 -0.58697486 0
0.043855447 0.032659542 0.02946021 0.59104544 0.55328655 -0.58697486 0
0.044218987 0.03214816 0.029344235 0.59104544 0.55328655 -0.58697486 0
0.067660466 0.032412477 0.029968144 -0.44624829 0.78485799 -0.42995408 0
0.068482667 0.032676928 0.029696103 -0.32884309 0.82786947 -0.4544166 0
0.079303376 0.03221111 0.029563613 0.10592119 -0.80819726 0.57930809 0
0.086390495 0.032509964 0.029556537 0.95468402 -0.28216532 0.094663136 0
-0.0864802 0.033526909 0.029373996 -0.95485502 0.026108738 -0.29592249 0
-0.072378024 0.033760794 0.029016936 0.26412255 0.716362 -0.64580548 0
-0.071525596 0.033691071 0.029375564 0.31423566 0.80401659 -0.50479031 0
-0.070500702 0.033293925 0.029359806 0.32884306 0.82786942 -0.4544166 0
-0.069689631 0.03309169 0.0295783 0.32884306 0.82786942 -0.4544166 0
-0.043457378 0.033422064 0.029778142 -0.59104544 0.55328655 -0.58697486 0
-0.042850316 0.033801064 0.02952411 -0.59104544 0.55328655 -0.58697486 0
0.042758942 0.033616379 0.029258018 0.59104544 0.55328655 -0.58697486 0
0.043160778 0.033387333 0.029446742 0.59104538 0.55328649 -0.5869748 0
0.069386095 0.033004947 0.029639926 -0.32884309 0.82786947 -0.4544166 0
0.070627205 0.033331238 0.029336235 -0.32884306 0.82786942 -0.45441654 0
0.071711838 0.03391543 0.029615624 -0.32884309 0.82786947 -0.4544166 0
0.072055645 0.033835404 0.029231546 -0.26412255 0.716362 -0.64580548 0
0.086524531 0.033399221 0.029522598 0.99447149 0.014649438 -0.10398049 0
-0.086463027 0.034577716 0.029444398 -0.96863687 0.023242619 -0.24739125 0
-0.075060442 0.034849782 0.029127836 0.26412255 0.716362 -0.64580548 0
-0.074335739 0.034612041 0.029160518 0.26412255 0.716362 -0.64580548 0
-0.073413819 0.034520742 0.029541321 0.30910394 0.79542077 -0.52130663 0
-0.042831156 0.034062132 0.029750908 -0.59104544 0.55328655 -0.58697486 0
0.042148214 0.034439936 0.029419724 0.59036231 0.55389118 -0.58709198 0
0.072599553 0.034119919 0.029367322 -0.28740165 0.7580297 -0.58548379 0
0.07342311 0.034498937 0.02948848 -0.31423569 0.80401659 -0.50479031 0
0.074989632 0.034911174 0.029224902 -0.26412255 0.716362 -0.64580548 0
0.086539559 0.034641843 0.029841354 0.99447149 0.014649439 -0.10398049 0
-0.086176544 0.035174113 0.029203855 -0.18948816 0.73891157 -0.6466096 0
-0.08546567 0.035797313 0.029679602 -0.14635317 0.6964165 -0.70255584 0
-0.084435955 0.035622753 0.029206458 -0.18948816 0.73891157 -0.6466096 0
-0.080365226 0.035771154 0.029095251 0.11383686 0.72479451 -0.67949557 0
-0.079684675 0.035799317 0.029239301 0.11383686 0.72479451 -0.67949557 0
-0.078676902 0.035979908 0.029600767 0.11383686 0.72479451 -0.67949557 0
-0.076663628 0.035615459 0.029549308 0.11383686 0.72479451 -0.67949557 0
-0.075164318 0.035224918 0.029502867 0.32884306 0.82786942 -0.4544166 0
-0.041434109 0.035335619 0.029546672 -0.59036231 0.55389118 -0.58709192 0
-0.04045359 0.035846654 0.029042825 -0.59036231 0.55389118 -0.58709192 0
0.040987678 0.035822593 0.029557189 0.59036231 0.55389118 -0.58709198 0
0.041318443 0.035358027 0.029451502 0.59036225 0.55389112 -0.58709198 0
0.074688368 0.035216715 0.029832354 -0.32884309 0.82786947 -0.4544166 0
0.075272076 0.035403416 0.029749552 -0.33538464 0.82291025 -0.4586238 0
0.076445349 0.035442937 0.029404676 -0.12418188 0.75395936 -0.64507687 0
0.077582285 0.035763808 0.029553639 -0.11383686 0.72479445 -0.67949557 0
0.07853663 0.035732768 0.029360652 -0.11383686 0.72479445 -0.67949557 0
0.079142854 0.035790104 0.029320247 -0.11383686 0.72479445 -0.67949557 0
0.081324205 0.035833701 0.029001305 -0.11383686 0.72479445 -0.67949557 0
0.084621541 0.035587925 0.029221045 0.18948814 0.73891157 -0.6466096 0
0.085639872 0.035558227 0.029459037 0.15725097 0.70750517 -0.68899101 0
0.086548187 0.035083197 0.029986126 0.99447149 0.014649438 -0.10398049 0
-0.085922234 0.036017988 0.029963385 -0.12441283 0.67339486 -0.7287392 0
-0.084198199 0.036232308 0.029833354 -0.18948816 0.73891157 -0.6466096 0
-0.083366081 0.036500733 0.029896244 -0.18948816 0.73891157 -0.6466096 0
-0.082442522 0.036424458 0.029538434 -0.18948816 0.73891157 -0.6466096 0
-0.081268281 0.0363671 0.029579632 0.11383686 0.72479451 -0.67949557 0
-0.080586217 0.036211397 0.029527819 0.11383685 0.72479451 -0.67949551 0
-0.079505466 0.03623642 0.029735571 0.11383686 0.72479451 -0.67949557 0
-0.07837297 0.036128148 0.029809808 0.11383686 0.72479451 -0.67949557 0
-0.07791885 0.036135644 0.029893881 0.11383686 0.72479451 -0.67949557 0
-0.04059593 0.036048125 0.029376037 -0.59036231 0.55389118 -0.58709192 0
-0.039918274 0.036720358 0.029328821 -0.59036231 0.55389118 -0.58709192 0
0.040165365 0.036392454 0.029267926 0.59036231 0.55389118 -0.58709198 0
0.079897933 0.0360763 0.029499022 -0.11383686 0.72479445 -0.67949557 0
0.080595255 0.036253154 0.029570846 -0.11383686 0.72479445 -0.67949557 0
0.081267625 0.036473416 0.029693145 -0.11383686 0.72479445 -0.67949557 0
0.08238402 0.036426421 0.029530015 0.038274594 0.74053925 -0.67092222 0
0.083607711 0.036244918 0.029674718 0.18948813 0.73891157 -0.6466096 0
0.084436901 0.036157016 0.029806748 0.16808185 0.71829259 -0.67513275 0
0.08523266 0.036110625 0.029931262 0.12441284 0.67339486 -0.7287392 0
-0.039678212 0.03736705 0.029715933 -0.5745427 0.58217484 -0.5753026 0
-0.03847469 0.03783799 0.029008307 -0.56637675 0.59605706 -0.56915146 0
0.038517579 0.037800752 0.029011987 0.56637681 0.596057 -0.56915146 0
0.039273784 0.037484124 0.029432911 0.56637681 0.596057 -0.56915146 0
-0.038811453 0.0381511 0.029671341 -0.56637675 0.59605706 -0.56915146 0
-0.037776668 0.03861184 0.029124118 -0.56637675 0.59605706 -0.56915146 0
0.037813995 0.038668007 0.029220089 0.56637675 0.596057 -0.56915146 0
0.038443379 0.038524941 0.029696573 0.56637681 0.596057 -0.56915146 0
-0.0377906 0.039152585 0.029704288 -0.56637675 0.59605706 -0.56915146 0
0.036736414 0.039623667 0.029138424 0.57179195 0.59162921 -0.56835639 0
0.037693959 0.039116465 0.029570293 0.56637681 0.596057 -0.56915146 0
-0.036339957 0.040361155 0.029507261 -0.57179195 0.59162921 -0.56835639 0
-0.035732806 0.040750802 0.029302038 -0.57179195 0.59162921 -0.56835639 0
0.035855725 0.040875711 0.029555725 0.57179195 0.59162921 -0.56835639 0
0.036226686 0.040363055 0.029395282 0.57179195 0.59162921 -0.56835639 0
-0.0351016 0.041189738 0.02912393 -0.57179195 0.59162921 -0.56835639 0
0.034975048 0.041259661 0.029069398 0.57179195 0.59162921 -0.56835639 0
0.03533848 0.041504383 0.029689766 0.57179195 0.59162921 -0.56835639 0
-0.034249164 0.042235587 0.029456168 -0.50312781 0.69332278 -0.51591283 0
-0.03372293 0.042506702 0.029307324 -0.50312775 0.69332278 -0.51591277 0
0.033884089 0.042386565 0.029303044 0.50312775 0.69332284 -0.51591277 0
0.034289036 0.04207677 0.029281624 0.50312775 0.69332278 -0.51591277 0
-0.032458931 0.043413118 0.029292757 -0.50312775 0.69332278 -0.51591277 0
-0.031936631 0.043728732 0.029207541 -0.50312775 0.69332278 -0.51591277 0
0.031928848 0.043820113 0.029324524 0.48545033 0.70495099 -0.51709002 0
0.03257674 0.043502938 0.029528355 0.50312775 0.69332278 -0.51591277 0
0.033228077 0.043084454 0.02960116 0.50312775 0.69332278 -0.51591277 0
-0.031991847 0.044261143 0.029984921 -0.48545027 0.70495099 -0.51709002 0
-0.030610412 0.044809919 0.029436156 -0.48545027 0.70495099 -0.51709002 0
0.030442279 0.044701718 0.029130802 0.48545033 0.70495099 -0.51709002 0
0.03207064 0.044075698 0.029806072 0.48545033 0.70495099 -0.51709002 0
-0.030460767 0.045197725 0.029824369 -0.4854503 0.70495105 -0.51709002 0
-0.029570213 0.045646414 0.0296 -0.48545027 0.70495099 -0.51709002 0
0.028988162 0.045644902 0.029051507 0.48545033 0.70495099 -0.51709002 0
0.030417195 0.045094833 0.029643185 0.48545033 0.70495099 -0.51709002 0
-0.029084595 0.046037082 0.029676702 -0.48545027 0.70495099 -0.51709002 0
-0.02825743 0.046338338 0.029310856 -0.48545027 0.70495099 -0.51709002 0
-0.027997727 0.046434686 0.02919839 -0.48545027 0.70495099 -0.51709002 0
-0.026619118 0.047297344 0.029320218 -0.42778018 0.77408677 -0.46668386 0
0.026404694 0.047469705 0.029409565 0.42778015 0.77408671 -0.46668383 0
0.027548945 0.047070906 0.029796939 0.42778018 0.77408677 -0.46668386 0
0.023816518 0.048825838 0.029362116 0.37874368 0.79812497 -0.46856132 0
0.024748061 0.048272215 0.029222142 0.42778018 0.77408677 -0.46668386 0
0.025285054 0.048236147 0.029654553 0.42778018 0.77408677 -0.46668386 0
-0.02249866 0.049279142 0.029069021 -0.37874368 0.79812503 -0.46856132 0
-0.021745408 0.049869526 0.029465785 -0.37874365 0.79812497 -0.46856129 0
0.02161124 0.049797073 0.029233925 0.37874368 0.79812497 -0.46856132 0
0.022599788 0.049457099 0.029453885 0.37874368 0.79812497 -0.46856132 0
0.023179365 0.049115583 0.029340638 0.37874368 0.79812497 -0.46856132 0
-0.021419173 0.050146032 0.02967307 -0.37874365 0.79812497 -0.46856129 0
-0.019868452 0.05077441 0.029489957 -0.37874368 0.79812503 -0.46856132 0
0.01946561 0.050792906 0.029195841 0.37874368 0.79812497 -0.46856132 0
0.020706622 0.050355915 0.029454619 0.37874371 0.79812503 -0.46856138 0
0.021018978 0.050355136 0.029705761 0.37874368 0.79812497 -0.46856132 0
-0.019168125 0.051260296 0.029751509 -0.37874365 0.79812497 -0.46856129 0
-0.018325979 0.051714223 0.029929619 -0.344392 0.83228856 -0.43438452 0
-0.017731925 0.051680505 0.029394023 -0.344392 0.83228856 -0.43438452 0
0.016842306 0.051979162 0.029260946 0.34439197 0.83228856 -0.43438452 0
0.017791087 0.051790603 0.02965188 0.34439197 0.83228856 -0.43438452 0
0.018445009 0.05132284 0.029278766 0.36172682 0.81556523 -0.45167145 0
0.019060213 0.051314309 0.029756283 0.37874368 0.79812497 -0.46856132 0
-0.017150879 0.052180514 0.029891385 -0.344392 0.83228856 -0.43438452 0
-0.016506247 0.052200735 0.029419051 -0.344392 0.83228856 -0.43438452 0
-0.015728181 0.052605689 0.029578075 -0.34439197 0.83228856 -0.4343845 0
-0.01484356 0.052678905 0.029017018 -0.344392 0.83228856 -0.43438452 0
0.015625743 0.052752476 0.029778106 0.34439197 0.83228856 -0.4343845 0
0.016606491 0.052193567 0.029484794 0.34439197 0.83228856 -0.43438452 0
-0.013528837 0.05360727 0.029753421 -0.344392 0.83228856 -0.43438452 0
-0.012262076 0.053748235 0.029469911 -0.16836402 0.88212693 -0.43989286 0
-0.011490395 0.053807698 0.029293809 -0.16836402 0.88212693 -0.43989286 0
0.011645039 0.053871691 0.029481329 0.168364 0.88212687 -0.43989286 0
0.012183459 0.053820476 0.029584691 0.168364 0.88212687 -0.43989286 0
0.013551518 0.05348146 0.029543154 0.28678542 0.85207886 -0.43785346 0
0.014372133 0.053131551 0.029510519 0.34439197 0.83228856 -0.4343845 0
-0.009785356 0.054350585 0.029729884 -0.16836402 0.88212693 -0.43989286 0
-0.0081825079 0.054487299 0.029390564 -0.16836402 0.88212693 -0.43989286 0
-0.0072227721 0.05482487 0.029700182 -0.16836402 0.88212693 -0.43989286 0
-0.0063162521 0.054813489 0.029333167 -0.15373155 0.89137316 -0.42640421 0
-0.0046591451 0.054941837 0.029004032 -0.15373155 0.89137316 -0.42640421 0
0.0064391415 0.054770429 0.029292829 0.16105749 0.88680345 -0.43317464 0
0.0073944265 0.054604858 0.029324681 0.168364 0.88212687 -0.43989286 0
0.0084412554 0.054472536 0.029459991 0.168364 0.88212687 -0.43989286 0
0.0093815075 0.054332886 0.029539825 0.168364 0.88212687 -0.43989286 0
0.01101326 0.054021478 0.029539883 0.168364 0.88212687 -0.43989286 0
-0.0061488627 0.055054743 0.029777143 -0.15373155 0.89137316 -0.42640421 0
-0.0034060897 0.05539915 0.029508246 -0.15373155 0.89137316 -0.42640421 0
-0.002628101 0.055503804 0.029446555 -0.15373155 0.89137316 -0.42640421 0
-0.0017929911 0.055547096 0.029235959 -0.15373155 0.89137316 -0.42640421 0
-0.00090739835 0.055642173 0.029115424 -0.15373155 0.89137316 -0.42640421 0
0.00053867436 0.055754021 0.029216304 0.15373155 0.89137316 -0.42640421 0
0.0017212888 0.055756319 0.029647473 0.15373155 0.89137316 -0.42640421 0
0.0026790283 0.055674359 0.029821444 0.15373155 0.89137316 -0.42640421 0
0.0034607486 0.055233274 0.029181212 0.15373155 0.89137316 -0.42640421 0
0.0045273341 0.055264965 0.029631987 0.15373155 0.89137316 -0.42640421 0
0.0054685194 0.055045843 0.029513262 0.15373155 0.89137316 -0.42640421 0
0.0060163424 0.055101372 0.02982684 0.15373155 0.89137316 -0.42640421 0
0.00035294201 -0.063079894 0.030045481 0.017709546 -0.85507935 0.51819474 0
0.0018697679 -0.063065469 0.03001615 0.018632378 -0.85532516 0.51775646 0
-0.0082870349 -0.062016435 0.030228531 -0.27052838 -0.81270093 0.51607329 0
-0.0074209305 -0.062260568 0.030298091 -0.27052838 -0.81270093 0.51607329 0
-0.0065119513 -0.062282223 0.030559221 -0.11930597 -0.84772074 0.51685172 0
-0.005426324 -0.062468894 0.030503646 -0.11930597 -0.84772074 0.51685172 0
-0.0044054948 -0.062548772 0.03060041 -0.11420195 -0.8467676 0.51955998 0
-0.0033009783 -0.062520109 0.030865582 -0.01863238 -0.85532522 0.5177564 0
-0.002915283 -0.062890075 0.030268282 -0.01863238 -0.85532522 0.5177564 0
-0.0017630473 -0.06278196 0.030488342 -0.01863238 -0.85532522 0.5177564 0
-0.00045251625 -0.062703654 0.03066292 -0.017709583 -0.85507929 0.51819462 0
0.00034347744 -0.062795475 0.030515132 0.017709546 -0.85507935 0.51819474 0
0.0010228686 -0.062672943 0.030694097 0.017709546 -0.85507935 0.51819474 0
0.00248874 -0.062827602 0.030386847 0.018632378 -0.85532516 0.51775646 0
0.0033611439 -0.062642768 0.030626036 0.050540641 -0.85334635 0.51888883 0
0.0046756212 -0.062616818 0.030430131 0.11420193 -0.8467676 0.51955998 0
0.0050893459 -0.06221164 0.030999538 0.11420193 -0.8467676 0.51955998 0
0.0066227787 -0.062595375 0.030020019 0.11930596 -0.84772068 0.51685172 0
0.0070547061 -0.062135175 0.030675117 0.11930596 -0.84772068 0.51685172 0
-0.011182146 -0.061015368 0.030187847 -0.38294753 -0.77504075 0.50265592 0
-0.010372033 -0.061117977 0.030533172 -0.28182986 -0.81365287 0.50846922 0
-0.0091600325 -0.06152438 0.030545786 -0.27052838 -0.81270093 0.51607329 0
-0.0089770397 -0.061346367 0.030922033 -0.27052838 -0.81270093 0.51607329 0
-0.0078863958 -0.061771199 0.030824743 -0.27052838 -0.81270093 0.51607329 0
0.0084284535 -0.061606031 0.030800696 0.27052835 -0.81270093 0.51607323 0
0.0095792208 -0.061565645 0.030253876 0.27618557 -0.81319588 0.51228315 0
0.011111962 -0.061160866 0.030049236 0.47956583 -0.72732228 0.49093676 0
-0.012472889 -0.060161032 0.030201081 -0.47956583 -0.72732234 0.49093673 0
-0.011599219 -0.060425907 0.030662104 -0.47956583 -0.72732234 0.49093673 0
-0.010600468 -0.060934886 0.030699544 -0.28182986 -0.81365287 0.50846922 0
0.010904646 -0.060765646 0.030801766 0.28182989 -0.81365287 0.50846922 0
0.011584609 -0.06057623 0.030453667 0.47956583 -0.72732228 0.49093676 0
0.01225027 -0.060183883 0.030384693 0.47956583 -0.72732228 0.49093676 0
-0.014027416 -0.059024181 0.030366806 -0.47956583 -0.72732234 0.49093673 0
-0.0134682 -0.059510183 0.030193049 -0.4795658 -0.72732234 0.4909367 0
-0.012900006 -0.059651084 0.030539343 -0.47956583 -0.72732234 0.49093673 0
0.012591292 -0.059869777 0.030516913 0.47956583 -0.72732228 0.49093676 0
-0.014305749 -0.058813427 0.030407146 -0.47956583 -0.72732234 0.49093673 0
-0.013921433 -0.058832631 0.030754112 -0.47956583 -0.72732234 0.49093673 0
0.01394219 -0.058729813 0.030886158 0.47956583 -0.72732228 0.49093676 0
-0.016017148 -0.057165053 0.030085323 -0.71765399 -0.54903293 0.42841056 0
-0.015344 -0.057703964 0.030493323 -0.7153523 -0.53153253 0.45359039 0
0.015654847 -0.057282694 0.03050304 0.71237421 -0.51352954 0.47834128 0
-0.016217638 -0.056715496 0.030273823 -0.71237421 -0.51352954 0.47834128 0
0.015973618 -0.056652807 0.030704524 0.71237421 -0.51352954 0.47834128 0
0.016570894 -0.056217879 0.030281955 0.71237421 -0.51352954 0.47834125 0
-0.017129114 -0.055396605 0.030332308 -0.71237421 -0.51352954 0.47834128 0
-0.016844422 -0.055792615 0.030331146 -0.71237421 -0.51352954 0.47834128 0
-0.017702356 -0.054449122 0.030480497 -0.86526543 -0.31873617 0.38694048 0
0.017694592 -0.054540392 0.030409364 0.71237421 -0.51352954 0.47834128 0
-0.017969389 -0.053799398 0.030370794 -0.91920286 -0.21304817 0.33117455 0
0.017947096 -0.053283047 0.030764846 0.91920286 -0.21304819 0.33117455 0
0.018251661 -0.053084791 0.030047044 0.91920286 -0.21304819 0.33117455 0
-0.01816453 -0.052972347 0.030361217 -0.91920286 -0.21304817 0.33117455 0
0.018201813 -0.052473456 0.030578677 0.91920286 -0.21304819 0.33117455 0
-0.018514788 -0.051544625 0.030307513 -0.91920286 -0.21304817 0.33117455 0
0.018583558 -0.051211718 0.030330801 0.91920286 -0.21304819 0.33117455 0
-0.018678315 -0.050561145 0.030466191 -0.9215492 -0.19859122 0.33362943 0
0.018631114 -0.050784688 0.030463504 0.92154926 -0.19859123 0.33362943 0
-0.018762328 -0.049834277 0.030666795 -0.9215492 -0.19859122 0.33362943 0
0.018788179 -0.049414832 0.030845067 0.92154926 -0.19859123 0.33362943 0
0.018904585 -0.048571549 0.030912321 0.97564727 -0.0062876111 0.21925531 0
0.019035555 -0.04863064 0.03017059 0.97804701 0.18634917 0.093263149 0
-0.018806042 -0.047670934 0.030659895 -0.97804701 0.18634917 0.093263149 0
0.018783078 -0.047467817 0.03049488 0.97804701 0.18634917 0.093263149 0
-0.018570647 -0.046357978 0.030505074 -0.97804701 0.18634917 0.093263149 0
0.018640231 -0.046878435 0.030815266 0.97804701 0.18634917 0.093263149 0
-0.018416215 -0.045503713 0.030542787 -0.98244345 0.1658508 0.085431196 0
0.018437345 -0.045643508 0.030576911 0.98030657 0.17611101 0.089352764 0
-0.018221477 -0.044231273 0.030312004 -0.98244345 0.16585082 0.085431203 0
0.018258994 -0.044570331 0.03053879 0.98244339 0.16585077 0.085431188 0
0.018053818 -0.043394782 0.030616118 0.98244345 0.1658508 0.085431196 0
-0.017968677 -0.042934895 0.030702427 -0.98244345 0.16585082 0.085431203 0
0.017723726 -0.042191118 0.030738611 0.8970294 0.43044508 -0.10027614 0
-0.017390676 -0.041449919 0.030872768 -0.91535586 0.38188314 -0.12762791 0
0.017328132 -0.041427672 0.030476963 0.8970294 0.43044508 -0.10027614 0
-0.01700077 -0.040574867 0.030604023 -0.9305315 0.33200669 -0.15454037 0
-0.016889071 -0.040466238 0.030164825 -0.9305315 0.33200669 -0.15454037 0
-0.016614875 -0.039542593 0.030498117 -0.9305315 0.33200669 -0.15454037 0
0.016542094 -0.039253578 0.030680779 0.9305315 0.33200672 -0.1545404 0
-0.016183248 -0.038333382 0.030528927 -0.93119532 0.35055298 -0.099939458 0
0.016263986 -0.038513586 0.030605633 0.93131983 0.34601286 -0.1136594 0
-0.015946854 -0.037762985 0.030299006 -0.9305315 0.33200669 -0.15454037 0
0.015919352 -0.037695501 0.030278375 0.9305315 0.33200672 -0.1545404 0
-0.015563097 -0.036587089 0.030536529 -0.91628724 0.35883382 -0.17792127 0
0.01557639 -0.03655697 0.030749081 0.95769185 0.26825762 -0.10423084 0
-0.015131334 -0.035486404 0.030678328 -0.90069675 0.38513371 -0.20104074 0
0.015038887 -0.035585407 0.03007449 0.90069675 0.38513374 -0.20104079 0
-0.014698949 -0.034585111 0.03046778 -0.90069675 0.38513371 -0.20104074 0
0.014711136 -0.034543678 0.030598786 0.92321223 0.30882755 -0.22870217 0
-0.014434724 -0.033702273 0.030397346 -0.94629568 -0.018802537 -0.32275552 0
0.014471277 -0.033593323 0.030498169 0.94629568 -0.018802548 -0.32275552 0
-0.014472672 -0.032515649 0.03044194 -0.9501245 -0.0054495828 -0.31182328 0
0.014523872 -0.032587375 0.030597934 0.95012456 -0.0054495772 -0.31182331 0
-0.014530901 -0.031410035 0.030662069 -0.94898301 -0.070618257 -0.30731782 0
0.014473964 -0.031476241 0.030498425 0.95689148 0.02126147 -0.28966653 0
-0.014540358 -0.030657552 0.030365752 -0.87436903 -0.34247044 -0.3437919 0
0.014684767 -0.030218396 0.030295562 0.87436903 -0.34247038 -0.3437919 0
-0.015233727 -0.029254889 0.030731931 -0.87436903 -0.34247044 -0.3437919 0
0.014895159 -0.029664272 0.030278658 0.87436903 -0.34247038 -0.3437919 0
0.015045206 -0.029535644 0.030532144 0.87436903 -0.34247038 -0.3437919 0
0.015318174 -0.028638275 0.030332465 0.87436903 -0.34247038 -0.3437919 0
-0.016186556 -0.027629444 0.030917078 -0.75490427 -0.48573712 -0.4406575 0
-0.015796326 -0.027550966 0.030162055 -0.75490427 -0.48573712 -0.4406575 0
0.015560693 -0.027906802 0.030150626 0.75490427 -0.48573712 -0.4406575 0
-0.016609032 -0.026686981 0.030600339 -0.75422436 -0.48843056 -0.43884066 0
0.016661141 -0.026487544 0.030466735 0.75433826 -0.48798206 -0.43914378 0
-0.017287537 -0.025421828 0.030352438 -0.75376654 -0.49022329 -0.43762672 0
0.016998176 -0.025744628 0.030215632 0.7537666 -0.49022332 -0.43762672 0
0.017114084 -0.025890946 0.030579178 0.7537666 -0.49022332 -0.43762672 0
-0.018082861 -0.024505846 0.030696228 -0.75376654 -0.49022329 -0.43762672 0
-0.017792109 -0.024694359 0.030406607 -0.75376654 -0.49022329 -0.43762672 0
0.018067522 -0.024622209 0.030800156 0.7537666 -0.49022332 -0.43762672 0
-0.01861926 -0.02364081 0.030651957 -0.75439984 -0.48928633 -0.43758413 0
0.018820319 -0.023416486 0.030747872 0.75503212 -0.48834875 -0.43754086 0
-0.019354155 -0.022614164 0.030773582 -0.75503212 -0.48834878 -0.43754089 0
0.019261248 -0.022126732 0.030069225 0.75503212 -0.48834875 -0.43754086 0
-0.020200383 -0.021477273 0.030909292 -0.69692731 -0.53393102 -0.47875881 0
-0.019456269 -0.021875978 0.030125886 -0.75503212 -0.48834878 -0.43754089 0
0.020077161 -0.021260086 0.030509908 0.75503212 -0.48834875 -0.43754086 0
-0.021424225 -0.020072442 0.030884443 -0.63383752 -0.57569414 -0.51655227 0
0.020440554 -0.020514488 0.030170083 0.63383746 -0.57569414 -0.51655227 0
-0.022292741 -0.019081775 0.030846063 -0.63383752 -0.57569414 -0.51655227 0
-0.021408167 -0.019742459 0.030496974 -0.63383752 -0.57569414 -0.51655227 0
0.021235539 -0.019755175 0.030299319 0.63383746 -0.57569414 -0.51655227 0
-0.023087304 -0.01819391 0.030831516 -0.63383752 -0.57569414 -0.51655227 0
-0.022616416 -0.018337887 0.030414172 -0.63383752 -0.57569414 -0.51655227 0
0.022517737 -0.01855549 0.030535605 0.63383752 -0.5756942 -0.51655233 0
-0.02338754 -0.01741571 0.030332619 -0.63383752 -0.57569414 -0.51655227 0
-0.022855397 -0.01779731 0.030104944 -0.63383752 -0.57569414 -0.51655227 0
0.0233604 -0.017699167 0.030615229 0.63383752 -0.5756942 -0.51655233 0
-0.024345564 -0.016435407 0.030419674 -0.63996947 -0.55882543 -0.5274024 0
-0.023852874 -0.016759079 0.030171804 -0.63383752 -0.57569414 -0.51655227 0
0.024311248 -0.016540129 0.030490233 0.63383752 -0.5756942 -0.51655233 0
-0.025301561 -0.015549534 0.030690033 -0.6566751 -0.50674331 -0.55855978 0
-0.024948344 -0.015261914 0.030013829 -0.6566751 -0.50674331 -0.55855978 0
0.024699919 -0.015706468 0.030125083 0.65667516 -0.50674331 -0.55855978 0
0.02543385 -0.015512843 0.030812271 0.65667516 -0.50674331 -0.55855978 0
0.025611296 -0.014577634 0.030172436 0.65667516 -0.50674331 -0.55855978 0
0.026123574 -0.014344417 0.030563114 0.65667516 -0.50674331 -0.55855978 0
-0.027158227 -0.013346863 0.030792644 -0.49301699 -0.55915672 -0.66654187 0
-0.026406739 -0.013653262 0.030268982 -0.6566751 -0.50674331 -0.55855978 0
0.02704858 -0.013195258 0.030584361 0.49301702 -0.55915672 -0.66654187 0
-0.028449222 -0.012348857 0.030910326 -0.49301699 -0.55915672 -0.66654187 0
-0.027469598 -0.01247188 0.030272625 -0.57782888 -0.53571552 -0.61572933 0
0.027755188 -0.012208962 0.03027962 0.49301705 -0.55915672 -0.66654187 0
-0.029423738 -0.011212247 0.030677648 -0.49301699 -0.55915672 -0.66654187 0
-0.027765382 -0.011968148 0.030085141 -0.49301699 -0.55915672 -0.66654187 0
0.027977688 -0.01182401 0.030121259 0.49301702 -0.55915672 -0.66654187 0
0.028769443 -0.011664642 0.030573199 0.49301702 -0.55915666 -0.66654181 0
0.029395804 -0.011117926 0.030577861 0.49301702 -0.55915672 -0.66654187 0
-0.030804034 -0.010182759 0.030834973 -0.49301699 -0.55915672 -0.66654187 0
-0.029485524 -0.010655405 0.030256217 -0.49301699 -0.55915672 -0.66654187 0
0.029536726 -0.010762413 0.030383861 0.49301705 -0.55915672 -0.66654187 0
0.030548075 -0.010446507 0.030866906 0.49301705 -0.55915672 -0.66654187 0
-0.031394552 -0.0094452165 0.030653037 -0.49301696 -0.55915672 -0.66654181 0
-0.030111898 -0.0099893203 0.030160747 -0.49301699 -0.55915672 -0.66654187 0
0.030814111 -0.0093845427 0.030172806 0.49301702 -0.55915672 -0.66654187 0
0.031557951 -0.009352766 0.030696345 0.49301705 -0.55915672 -0.66654187 0
-0.03269127 -0.0084342025 0.030764041 -0.49301699 -0.55915672 -0.66654187 0
-0.031713285 -0.0087389667 0.030296326 -0.49301699 -0.55915672 -0.66654187 0
0.032570194 -0.0085813636 0.03079794 0.49301702 -0.55915672 -0.66654187 0
-0.033358168 -0.0074930373 0.030435316 -0.47571138 -0.57841206 -0.66267496 0
-0.032696489 -0.0078378944 0.030261213 -0.48151654 -0.5720371 -0.66401452 0
0.033415016 -0.0073700338 0.030368766 0.47571141 -0.57841206 -0.66267502 0
-0.035285361 -0.006498212 0.030950453 -0.47571138 -0.57841206 -0.66267502 0
-0.034391832 -0.0062854253 0.03012329 -0.47571141 -0.57841206 -0.66267502 0
0.033954576 -0.006602589 0.030086238 0.47571141 -0.57841206 -0.66267502 0
0.034137812 -0.0066064666 0.030221161 0.47571141 -0.57841206 -0.66267502 0
0.035585355 -0.0062497985 0.030948984 0.47571141 -0.57841206 -0.66267502 0
-0.036539573 -0.0052420441 0.030708283 -0.44703716 -0.59019375 -0.67218238 0
-0.035787892 -0.005368649 0.030318078 -0.4614349 -0.58437967 -0.66751641 0
-0.034855768 -0.0058414363 0.0300688 -0.47571138 -0.57841206 -0.66267502 0
0.035286352 -0.0058726785 0.030405175 0.47571141 -0.57841206 -0.66267502 0
-0.037609968 -0.0045116958 0.030778887 -0.44703713 -0.59019369 -0.67218232 0
0.036792882 -0.0046419948 0.030349888 0.44703725 -0.59019381 -0.67218232 0
0.037467983 -0.0043464801 0.030539399 0.44703725 -0.59019381 -0.67218232 0
0.038372234 -0.0041267886 0.030947881 0.44703725 -0.59019381 -0.67218232 0
-0.039771657 -0.0030926815 0.030970596 -0.44703716 -0.59019375 -0.67218238 0
-0.03834049 -0.0033742441 0.030266013 -0.44703716 -0.59019375 -0.67218238 0
0.037922785 -0.0039878609 0.030526988 0.44703725 -0.59019381 -0.67218232 0
0.038564797 -0.0033990021 0.030436927 0.44703722 -0.59019375 -0.67218226 0
-0.040389765 -0.002301188 0.030696556 -0.48223075 -0.59528416 -0.64272094 0
-0.039610218 -0.0028426177 0.03064367 -0.44703716 -0.59019375 -0.67218238 0
0.039869443 -0.0024894609 0.030505985 0.44703725 -0.59019381 -0.67218232 0
0.040343579 -0.0024031852 0.030746737 0.46473911 -0.59289432 -0.65764266 0
-0.041782271 -0.0010664706 0.030652238 -0.54952967 -0.60165268 -0.57968193 0
0.040917777 -0.0018748601 0.030671738 0.54952973 -0.60165268 -0.57968199 0
0.04133274 -0.0014349751 0.030619767 0.5298453 -0.60028321 -0.59910256 0
-0.042545792 -0.00019480484 0.030698041 -0.71170151 -0.44049826 -0.54721314 0
0.041424233 -0.00081287237 0.030067915 0.44703725 -0.59019381 -0.67218232 0
0.042470671 -0.00037265423 0.030743502 0.71170151 -0.44049829 -0.5472132 0
-0.042565532 0.0003996068 0.030028051 -0.64637411 -0.63175428 -0.42788684 0
0.042973049 0.00021196154 0.030920699 0.64637405 -0.63175428 -0.42788681 0
0.043147687 0.00077466114 0.030353716 0.64637405 -0.63175428 -0.42788681 0
0.043896727 0.0015555233 0.030332834 0.64569497 -0.62929034 -0.43251789 0
-0.045334425 0.0026938485 0.030823451 -0.64637411 -0.63175428 -0.42788684 0
-0.044969428 0.0027533905 0.030191403 -0.64569497 -0.62929034 -0.43251798 0
0.044844687 0.0021697553 0.030857444 0.64637405 -0.63175428 -0.42788681 0
0.045236818 0.0026267939 0.030775528 0.64603674 -0.63052452 -0.43020388 0
-0.045598671 0.0033953716 0.030326623 -0.8612538 -0.40097457 -0.31218806 0
0.045735005 0.0034192242 0.030696301 0.79950947 -0.48318908 -0.35680938 0
-0.046328213 0.0047886726 0.030549696 -0.8612538 -0.40097457 -0.31218806 0
-0.046645682 0.0055151097 0.030492492 -0.8612538 -0.40097457 -0.31218806 0
0.0465273 0.005280728 0.030466946 0.86125374 -0.40097457 -0.31218809 0
-0.047267053 0.006518227 0.030775001 -0.88590461 -0.46348083 -0.018936124 0
0.04702308 0.0061859526 0.030087303 0.74118912 -0.64113104 -0.19897182 0
-0.047742616 0.0076074987 0.030399447 -0.95539349 -0.24647415 0.16270755 0
-0.048008941 0.0086082965 0.030394794 -0.9520821 -0.25856158 0.1633573 0
-0.047952455 0.0084294388 0.030440945 -0.9520821 -0.25856158 0.1633573 0
0.047869001 0.0082356781 0.030621463 0.95320255 -0.2545369 0.16314356 0
0.048044484 0.008632238 0.030225534 0.9520821 -0.25856158 0.1633573 0
-0.048291273 0.0095608085 0.030730039 -0.87831491 -0.46091622 -0.12696126 0
-0.048637524 0.010474706 0.030445993 -0.95868826 -0.28192726 0.037865646 0
0.048684705 0.010625299 0.030648593 0.93521506 -0.33702305 0.10857414 0
-0.049252369 0.011439314 0.03029884 -0.7671423 -0.52202541 0.37280321 0
0.049186427 0.011395507 0.030373191 0.7671423 -0.52202535 0.37280318 0
-0.049763761 0.012420114 0.030607177 -0.78502613 -0.48906898 0.38019136 0
0.049793351 0.012374623 0.030495312 0.76714236 -0.52202541 0.37280321 0
-0.050252993 0.013296509 0.030608704 -0.81714451 -0.36586151 0.44544381 0
0.05037703 0.013421098 0.030464191 0.81481743 -0.38421282 0.43411189 0
-0.05084274 0.014682726 0.030422598 -0.82299256 -0.27205652 0.49866664 0
0.050530463 0.014305 0.030731902 0.82299262 -0.27205652 0.49866664 0
0.051111802 0.014772053 0.030105034 0.74403322 -0.37800616 0.55093193 0
-0.05109182 0.015208419 0.03043142 -0.74403322 -0.37800613 0.55093187 0
0.050857931 0.015081731 0.030660363 0.74403322 -0.37800616 0.55093193 0
0.051463056 0.015837429 0.030373201 0.72033495 -0.38453451 0.57727873 0
-0.051782273 0.016341008 0.030214814 -0.67681813 -0.20634513 0.70663923 0
0.051609695 0.016314151 0.030416466 0.71736944 -0.19778448 0.66802871 0
-0.052544884 0.017827991 0.030097924 -0.49614885 -0.34911147 0.79495758 0
-0.05173827 0.017463418 0.030621611 -0.67681813 -0.20634513 0.70663923 0
0.051711041 0.017678922 0.030683899 0.72289217 -0.16115534 0.67190474 0
0.052598149 0.01799392 0.030061036 0.52899283 0.059986543 0.84650356 0
-0.052409329 0.01887027 0.030116932 -0.52899289 0.059986558 0.84650356 0
-0.051859245 0.018604565 0.030649155 -0.80092371 -0.069879331 0.59467477 0
0.051831588 0.018632481 0.030689267 0.79907131 -0.070814699 0.59705144 0
0.052545656 0.018132765 0.030084003 0.52899283 0.059986543 0.84650356 0
-0.052345265 0.019387554 0.030215109 -0.69970042 -0.10929006 0.70602769 0
-0.051739253 0.019365696 0.03089981 -0.79907131 -0.070814699 0.59705144 0
0.051717009 0.01913958 0.030902935 0.80276817 -0.068943277 0.59229225 0
0.0523302 0.019221915 0.030141464 0.52899283 0.059986543 0.84650356 0
-0.053670809 0.020713868 0.030056736 -0.19052634 -0.69869637 0.68958181 0
-0.05234478 0.020499313 0.030814419 -0.61321473 -0.67665374 0.40756279 0
0.052805811 0.020569559 0.030316819 0.63069618 -0.34450766 0.69536817 0
0.053232539 0.020766148 0.030372679 0.32365298 -0.81079572 0.487708 0
0.054518133 0.020928662 0.030040257 0.19052634 -0.69869637 0.68958181 0
-0.057443917 0.021935552 0.030401461 -0.21002074 -0.81665039 0.53756249 0
-0.056650639 0.021729492 0.030398345 -0.21002075 -0.81665039 0.53756249 0
-0.055879518 0.021919776 0.030873206 -0.12624446 -0.81995213 0.55833769 0
-0.054537918 0.021475459 0.030646628 -0.28099927 -0.81478471 0.50711465 0
-0.053601567 0.021217778 0.03087879 -0.35557845 -0.80408722 0.47645321 0
0.053580739 0.021076096 0.030655224 0.35557845 -0.80408722 0.47645321 0
0.054843225 0.021202609 0.030213062 0.27303016 -0.68840575 0.67197621 0
0.055512063 0.021335436 0.030098155 0.12624446 -0.81995213 0.55833763 0
0.056254566 0.021604789 0.030325832 0.12624446 -0.81995213 0.55833763 0
0.057066277 0.021833051 0.03039328 0.21002077 -0.81665045 0.53756249 0
-0.061029069 0.022848397 0.030200493 -0.30240506 -0.77269393 0.55811763 0
-0.060294986 0.02255342 0.030189857 -0.30240506 -0.77269393 0.55811763 0
-0.059319913 0.022434365 0.030401448 -0.21348712 -0.77932131 0.5891363 0
-0.05829636 0.022168383 0.030422125 -0.21002075 -0.81665039 0.53756249 0
-0.057642583 0.022266034 0.030825902 -0.21002075 -0.81665039 0.53756249 0
-0.056581549 0.022096118 0.030973444 -0.12624446 -0.81995213 0.55833769 0
0.056951445 0.022165393 0.030943032 0.21002077 -0.81665045 0.53756249 0
0.057150409 0.022024538 0.030651316 0.21002077 -0.81665045 0.53756249 0
0.058494732 0.022445805 0.030741487 0.24960251 -0.81715679 0.51957035 0
0.05911658 0.022460945 0.030510332 0.21342596 -0.7792874 0.5892033 0
0.061315272 0.022851907 0.030050384 0.30247679 -0.772636 0.55815899 0
-0.062718116 0.023516465 0.030131184 -0.40165275 -0.77688378 0.48489872 0
-0.06155774 0.02326498 0.030491322 -0.30044472 -0.77427256 0.55698746 0
-0.060706776 0.023033082 0.03063081 -0.30240506 -0.77269393 0.55811763 0
0.060572356 0.023014203 0.030677643 0.30247679 -0.772636 0.55815899 0
0.061648469 0.023397412 0.030627698 0.29651716 -0.77741206 0.5547145 0
0.062716775 0.023707377 0.030418759 0.37769753 -0.76880413 0.51602793 0
0.063105419 0.023983154 0.030548254 0.36549222 -0.7643007 0.53128141 0
-0.065095015 0.024998926 0.030551668 -0.39232245 -0.78407258 0.48095042 0
-0.06436941 0.024610192 0.030515704 -0.40165275 -0.77688378 0.48489872 0
-0.063210949 0.024098026 0.030640911 -0.36549219 -0.7643007 0.53128141 0
0.062760457 0.024122819 0.030986492 0.36549222 -0.7643007 0.53128141 0
0.064484671 0.024513219 0.030264854 0.40165269 -0.77688378 0.48489869 0
0.065341152 0.02482892 0.030073734 0.39232239 -0.78407264 0.48095044 0
-0.066431642 0.02552559 0.030275082 -0.42625853 -0.77386534 0.46844006 0
-0.06552162 0.025304176 0.030701319 -0.39232242 -0.78407258 0.48095039 0
-0.069409162 0.026950832 0.030033842 -0.42013219 -0.82778519 0.37183419 0
-0.068151012 0.026629398 0.030615006 -0.37432635 -0.81673521 0.43911669 0
-0.067637831 0.026437735 0.030711122 -0.39562249 -0.80154014 0.44834825 0
-0.056377973 0.026810341 0.030395593 0.37002122 0.82131916 -0.43418789 0
-0.054217163 0.02646032 0.03048614 -0.10911094 0.85542858 -0.50629711 0
-0.05342707 0.026716791 0.030749196 -0.10911094 0.85542858 -0.50629717 0
-0.052631401 0.026748933 0.030632028 -0.10911094 0.85542858 -0.50629711 0
-0.051969532 0.026506698 0.030080115 -0.10911094 0.85542858 -0.50629711 0
0.050962478 0.026588764 0.030001743 0.10911097 0.85542858 -0.50629717 0
0.052580506 0.026831806 0.03076108 0.10911097 0.85542858 -0.50629717 0
0.053411476 0.026637662 0.030612141 0.10911097 0.85542858 -0.50629717 0
0.054399896 0.026420774 0.030458709 0.10911095 0.85542858 -0.50629711 0
0.055166431 0.026484786 0.030671485 0.021021726 0.84965855 -0.52691412 0
0.05618903 0.026819836 0.030574571 -0.37002122 0.82131916 -0.43418789 0
0.066553563 0.026014239 0.030971389 0.42625856 -0.77386534 0.46844009 0
0.067566887 0.026345273 0.030623645 0.4033643 -0.7947759 0.45346284 0
0.068428248 0.026682189 0.030477144 0.37574401 -0.81624025 0.43882605 0
-0.071235165 0.027982507 0.030204492 -0.4427354 -0.81727827 0.36883828 0
-0.070156842 0.027447002 0.030293627 -0.42013219 -0.82778519 0.37183419 0
-0.069366589 0.027250361 0.030733734 -0.37432635 -0.81673521 0.43911669 0
-0.058339745 0.027808713 0.030612282 0.37002122 0.82131916 -0.43418789 0
-0.057860311 0.027281471 0.030023523 0.37002122 0.82131916 -0.43418789 0
-0.056711193 0.0270161 0.030500837 0.37002122 0.82131916 -0.43418789 0
-0.051319309 0.027122527 0.030980481 -0.10911094 0.85542858 -0.50629711 0
-0.050318938 0.027532114 0.030768991 -0.5194599 0.66691959 -0.53420931 0
-0.049753431 0.027733441 0.030460622 -0.53018838 0.66230661 -0.5293867 0
0.050293863 0.027080212 0.030181181 0.52214992 0.66577631 -0.53301162 0
0.05155047 0.027016867 0.030851774 0.10911097 0.85542858 -0.50629717 0
0.056900308 0.027184971 0.030659117 -0.37002122 0.82131916 -0.43418789 0
0.057850126 0.02740768 0.030270942 -0.37002122 0.82131916 -0.43418789 0
0.058342919 0.027601115 0.03021688 -0.37002122 0.82131916 -0.43418789 0
0.070948727 0.027896997 0.030358842 0.4427354 -0.81727827 0.36883831 0
-0.082363307 0.028854236 0.030407419 -0.083673969 -0.77141023 0.63081282 0
-0.081485674 0.028789308 0.030365745 0.24030866 -0.63756198 0.73196065 0
-0.072383218 0.028668648 0.030495146 -0.41407499 -0.84684402 0.33376202 0
-0.071447939 0.028230032 0.030542588 -0.41407499 -0.84684402 0.33376202 0
-0.060324635 0.028683664 0.030575814 0.37002122 0.82131916 -0.43418789 0
-0.059564251 0.028404096 0.030694982 0.37002122 0.82131916 -0.43418789 0
-0.049245726 0.028163841 0.030490613 -0.53018838 0.66230661 -0.5293867 0
-0.04853474 0.028840771 0.030625442 -0.53018838 0.66230661 -0.5293867 0
0.048879288 0.028431658 0.030458683 0.53018832 0.66230661 -0.5293867 0
0.049005266 0.028141603 0.030221971 0.53018832 0.66230661 -0.5293867 0
0.05973684 0.028514855 0.030757412 -0.37002122 0.82131916 -0.43418789 0
0.060381528 0.028428027 0.030043758 -0.37002122 0.82131916 -0.43418789 0
0.061330672 0.028970873 0.030187532 -0.44278005 0.7876789 -0.42837819 0
0.071698263 0.028500684 0.030918745 0.41407493 -0.84684408 0.33376196 0
0.072526842 0.028758403 0.030544681 0.41407493 -0.84684408 0.33376196 0
0.073226705 0.028944045 0.030109193 0.46504989 -0.81633627 0.34252563 0
0.080648243 0.02897517 0.0302069 -0.53230351 -0.41884711 0.73567665 0
0.081651405 0.028536398 0.030113168 0.083673969 -0.77141029 0.63081282 0
0.082340308 0.028785817 0.030326802 0.083673969 -0.77141029 0.63081282 0
0.083030656 0.028809212 0.030137682 0.62129146 -0.73987782 0.25802675 0
-0.083655477 0.029348651 0.030347377 -0.5392943 -0.78502411 0.30479327 0
-0.082241669 0.029165156 0.03080377 -0.083673961 -0.77141023 0.63081282 0
-0.08148247 0.029245339 0.03092975 0.22528824 -0.75716412 0.61314565 0
-0.080446556 0.02962465 0.030528625 0.52524543 -0.59329277 0.61001718 0
-0.074451834 0.029762363 0.030396119 -0.46504986 -0.81633627 0.3425256 0
-0.073699951 0.029412743 0.030583711 -0.46504989 -0.81633627 0.34252563 0
-0.062356919 0.02971708 0.030498868 0.44278005 0.78767878 -0.42837819 0
-0.06153743 0.029250111 0.030486207 0.43182382 0.79192448 -0.43172193 0
0.047197104 0.029903488 0.030615337 0.53018832 0.66230661 -0.5293867 0
0.061368208 0.029293001 0.030739382 -0.41341519 0.79873973 -0.43715286 0
0.062327124 0.029726386 0.030546775 -0.44278005 0.7876789 -0.42837819 0
0.073244929 0.029077871 0.030403398 0.46504986 -0.81633627 0.3425256 0
0.074600264 0.029891912 0.030503344 0.46504989 -0.81633627 0.34252563 0
0.080533549 0.029314427 0.03032366 -0.53188008 -0.50851363 0.6771391 0
0.083733305 0.029642157 0.030937906 0.54536057 -0.75496602 0.36415395 0
0.084398143 0.029933888 0.030490723 0.54536057 -0.75496602 0.36415395 0
-0.085314237 0.030680925 0.030658837 -0.55445296 -0.71774304 0.42122078 0
-0.084587872 0.030192895 0.03075986 -0.54748404 -0.73864555 0.39327326 0
-0.080124065 0.03041612 0.030465603 0.94197106 -0.18572579 0.27963629 0
-0.075578265 0.030447518 0.030457353 -0.49163291 -0.77713102 0.39289245 0
-0.074947618 0.030128671 0.030595999 -0.46504989 -0.81633627 0.34252563 0
-0.064415284 0.030798234 0.030359263 0.44278005 0.78767878 -0.42837819 0
-0.063545093 0.030297473 0.030337937 0.44278008 0.78767884 -0.42837822 0
-0.062682994 0.030025261 0.030728498 0.44278005 0.78767878 -0.42837819 0
-0.046580464 0.030087713 0.030012298 -0.67796779 0.51848984 -0.52108341 0
0.046577662 0.030387739 0.030307198 0.67796773 0.5184899 -0.52108341 0
0.047294088 0.030062323 0.030911183 0.53018832 0.66230661 -0.5293867 0
0.062631346 0.030070737 0.030865502 -0.44278005 0.7876789 -0.42837819 0
0.06365218 0.030362897 0.030347552 -0.44278005 0.7876789 -0.42837819 0
0.064259715 0.030763945 0.03045701 -0.44278005 0.7876789 -0.42837819 0
0.075172164 0.030355759 0.030790456 0.48261535 -0.78771263 0.38287228 0
0.076308042 0.030778758 0.030194025 0.48460621 -0.76192391 0.42968458 0
0.080134474 0.030612836 0.03063135 -0.94197106 -0.18572579 0.27963626 0
0.08465068 0.030321855 0.030908719 0.54899234 -0.72153801 0.42188913 0
-0.085687131 0.03136484 0.030664336 -0.89321774 -0.41149676 0.18119746 0
-0.080089077 0.031271026 0.030915571 0.94197106 -0.18572579 0.27963629 0
-0.079967923 0.031513698 0.030312018 0.98863518 0.13633811 0.063343942 0
-0.076595142 0.031279031 0.03075733 -0.48460618 -0.76192391 0.42968461 0
-0.065500498 0.031570837 0.030658189 0.44278008 0.78767884 -0.42837822 0
-0.064973906 0.031332288 0.030763857 0.44278008 0.78767884 -0.42837822 0
-0.046317033 0.031234035 0.030810177 -0.67796779 0.51848984 -0.52108341 0
0.045648716 0.031579584 0.030291345 0.66127712 0.5260011 -0.53482282 0
0.064956725 0.031420842 0.030944437 -0.44278005 0.7876789 -0.42837819 0
0.065628432 0.031557996 0.030502331 -0.44278005 0.78767884 -0.42837816 0
0.0774685 0.03170339 0.030524809 0.48460621 -0.76192391 0.42968458 0
0.079967052 0.031373948 0.030232258 -0.98395282 -0.026491275 0.1764515 0
0.080047242 0.031608239 0.030870764 -0.97448748 -0.078886323 0.21012206 0
0.085795052 0.03150212 0.030458823 0.89108992 -0.41426456 0.18532068 0
-0.086384848 0.032702003 0.030329188 -0.88893616 -0.41702011 0.18943824 0
-0.085977577 0.032065168 0.030838437 -0.88893616 -0.41702011 0.18943824 0
-0.080102786 0.03224162 0.030844908 0.98847836 0.13892455 0.060087811 0
-0.079626091 0.032827541 0.030405607 0.076218471 -0.79832637 0.59738249 0
-0.078626007 0.032353468 0.030285561 -0.51298785 -0.73643732 0.44102558 0
-0.07783094 0.032131027 0.030838929 -0.51298785 -0.73643732 0.44102558 0
-0.068519965 0.032966491 0.030196648 0.32884306 0.82786942 -0.4544166 0
-0.067468002 0.032548148 0.030414753 0.44624832 0.78485787 -0.42995414 0
-0.066699855 0.032272831 0.030709304 0.44278008 0.78767884 -0.42837822 0
-0.045341361 0.032269679 0.030588944 -0.59104544 0.55328655 -0.58697486 0
-0.04469141 0.032775238 0.03041102 -0.59104538 0.55328649 -0.5869748 0
0.044512406 0.032809176 0.03026277 0.59104538 0.55328649 -0.5869748 0
0.066797502 0.032323834 0.030702144 -0.44278005 0.7876789 -0.42837819 0
0.067378521 0.032668848 0.030728647 -0.44970649 0.78201938 -0.43152031 0
0.078514084 0.032545581 0.030736536 0.51298785 -0.73643732 0.44102558 0
0.079447828 0.03254078 0.03000344 -0.034191638 -0.79836178 0.60120672 0
0.086339921 0.032528527 0.030158166 0.88893616 -0.41702008 0.18943821 0
-0.086638562 0.033438202 0.030618703 -0.99447149 0.014649448 -0.1039805 0
-0.079855546 0.033173043 0.030904694 0.11810941 -0.79686922 0.59249443 0
-0.070249632 0.033780165 0.030427337 0.32884306 0.82786942 -0.4544166 0
-0.069712996 0.033701014 0.030671466 0.32884306 0.82786942 -0.4544166 0
-0.044108197 0.033342741 0.030358698 -0.59104544 0.55328655 -0.58697486 0
-0.043786876 0.033513293 0.030195912 -0.59104544 0.55328655 -0.58697486 0
0.043621182 0.033718634 0.030222626 0.59104538 0.55328649 -0.5869748 0
0.044240151 0.033077803 0.03024184 0.59104544 0.55328655 -0.58697486 0
0.067890637 0.033026624 0.030843327 -0.44970649 0.78201938 -0.43152031 0
0.068881087 0.033216469 0.030390738 -0.32884309 0.82786947 -0.4544166 0
0.069863513 0.033910479 0.030944154 -0.32884309 0.82786947 -0.4544166 0
0.079485647 0.033022456 0.030645233 -0.034191638 -0.79836178 0.60120672 0
0.086588636 0.033620179 0.030348754 0.99489796 -0.095850922 -0.031473968 0
-0.086657792 0.034743182 0.030986471 -0.99447149 0.014649448 -0.1039805 0
-0.072502382 0.034825753 0.030701999 0.32884306 0.82786942 -0.4544166 0
-0.071452923 0.034321401 0.030542601 0.32884306 0.82786942 -0.4544166 0
-0.070903122 0.034071431 0.030485069 0.32884306 0.82786942 -0.4544166 0
-0.043313622 0.034476157 0.030626982 -0.59104538 0.55328649 -0.5869748 0
-0.042952131 0.034451295 0.030239547 -0.59104538 0.55328649 -0.5869748 0
0.042686582 0.03499347 0.030483315 0.59036231 0.55389118 -0.58709198 0
0.043463469 0.034385949 0.03069284 0.59104538 0.55328649 -0.5869748 0
0.070416138 0.034064781 0.030825358 -0.32884309 0.82786947 -0.4544166 0
0.07130181 0.034321081 0.030651368 -0.32884306 0.82786942 -0.45441654 0
0.072694324 0.034776311 0.030473014 -0.32884306 0.82786942 -0.45441654 0
0.073078513 0.034859516 0.030346572 -0.32884309 0.82786947 -0.4544166 0
0.086633235 0.034452684 0.030710708 0.99447149 0.014649438 -0.10398049 0
-0.086603902 0.035009131 0.030508548 -0.99447149 0.014649448 -0.1039805 0
-0.076249607 0.035959944 0.030216925 0.19679213 0.85659021 -0.47699696 0
-0.075174652 0.035655823 0.030275848 0.34834361 0.81281257 -0.46689668 0
-0.074329451 0.035305232 0.030253351 0.32884306 0.82786942 -0.4544166 0
-0.0732181 0.035149418 0.030773718 0.32884306 0.82786942 -0.4544166 0
-0.042311653 0.035559334 0.030640174 -0.59036231 0.55389118 -0.58709192 0
0.041730598 0.035801724 0.030284554 0.59036231 0.55389118 -0.58709198 0
0.074270025 0.035475295 0.030606169 -0.32884309 0.82786947 -0.4544166 0
0.075161964 0.035571564 0.030136097 -0.32884309 0.82786947 -0.4544166 0
0.086552776 0.035589963 0.030472413 0.91568106 0.30147356 -0.26578546 0
-0.08640945 0.036078483 0.030553699 -0.70014662 0.59287173 -0.39786667 0
-0.084867857 0.0365781 0.030300954 -0.12441283 0.67339486 -0.7287392 0
-0.083823375 0.0366477 0.030186951 -0.12441283 0.67339486 -0.7287392 0
-0.082538158 0.036813021 0.030010484 -0.18948816 0.73891157 -0.6466096 0
-0.081363082 0.036899798 0.030131958 0.11383686 0.72479451 -0.67949557 0
-0.080372483 0.036957279 0.030359235 0.11383686 0.72479451 -0.67949557 0
-0.079519093 0.036738314 0.030302465 0.15659712 0.79722214 -0.58302158 0
-0.078669317 0.03671062 0.0305667 0.19679213 0.85659021 -0.47699696 0
-0.077063993 0.036314081 0.0305169 0.19679213 0.85659021 -0.47699696 0
-0.076934695 0.036533512 0.0309643 0.19679213 0.85659021 -0.47699696 0
-0.075262874 0.036080189 0.030948799 0.34834361 0.81281257 -0.46689668 0
-0.041303866 0.036491103 0.030505843 -0.59036231 0.55389118 -0.58709192 0
0.040606171 0.036742121 0.030041089 0.59036231 0.55389118 -0.58709198 0
0.041604318 0.036574401 0.030886553 0.59036231 0.55389118 -0.58709198 0
0.075312182 0.036090694 0.030930219 -0.3483822 0.81278193 -0.46692118 0
0.076584734 0.036265634 0.030627582 -0.19678636 0.8565824 -0.47701344 0
0.077516213 0.036405891 0.030495182 -0.19678634 0.85658234 -0.47701341 0
0.078611948 0.03673216 0.03062902 -0.19678634 0.85658234 -0.47701341 0
0.079390258 0.036670044 0.030260287 -0.17037621 0.81860942 -0.54849851 0
0.080045015 0.036919333 0.030373946 -0.19678636 0.8565824 -0.47701344 0
0.083751179 0.036752652 0.030270567 0.15725097 0.70750517 -0.68899095 0
0.084672347 0.03670311 0.030383091 0.12441284 0.67339486 -0.7287392 0
0.085557178 0.036760714 0.030587383 0.12441284 0.67339486 -0.7287392 0
0.086101532 0.036732227 0.030985989 0.70014662 0.59287179 -0.39786667 0
-0.084949598 0.037307464 0.03098888 -0.12441283 0.67339486 -0.7287392 0
-0.083578095 0.037423175 0.030861653 -0.12441283 0.67339486 -0.7287392 0
-0.082749538 0.037429187 0.030710729 -0.14635317 0.6964165 -0.70255584 0
-0.081450291 0.037345726 0.030597907 0.15659712 0.79722214 -0.58302158 0
-0.080569997 0.037247911 0.030747421 0.19679213 0.85659021 -0.47699696 0
-0.041119169 0.037150819 0.030942526 -0.59036231 0.55389118 -0.58709192 0
-0.0402999 0.037598565 0.030573873 -0.56637675 0.59605706 -0.56915146 0
-0.03989337 0.03757827 0.030148072 -0.56637675 0.59605706 -0.56915146 0
0.040524416 0.03751589 0.030710712 0.56637681 0.596057 -0.56915146 0
0.079814799 0.037122101 0.030833026 -0.19678634 0.85658234 -0.47701338 0
0.080695301 0.037191149 0.030593785 -0.19678634 0.85658234 -0.47701338 0
0.081638724 0.03708645 0.030284878 -0.11383686 0.72479445 -0.67949557 0
0.082542881 0.037386876 0.030630244 0.15725097 0.70750517 -0.68899095 0
0.083211049 0.037325546 0.030708781 0.12441284 0.67339486 -0.7287392 0
